# .PCD v0.7 - Point Cloud Data file format
VERSION 0.7
FIELDS x y z r g b
SIZE 4 4 4 1 1 1
TYPE F F F I I I
COUNT 1 1 1 1 1 1
WIDTH 1754
HEIGHT 1
VIEWPOINT 0 0 0 1 0 0 0
POINTS 1754
DATA ascii
-9.355 2.111 -4.678 0 0 0 
-9.126 2.144 -4.64 0 0 0 
-9.346 2.15 -4.655 0 0 0 
-11.278 2.09 -4.631 0 0 0 
-9.057 2.087 -4.623 0 0 0 
-11.457 2.185 -5.076 0 0 0 
-11.424 2.971 -5.078 0 0 0 
-11.205 2.31 -4.886 0 0 0 
-10.588 2.287 -4.95 0 0 0 
-10.377 2.294 -5.082 0 0 0 
-10.455 2.215 -4.908 0 0 0 
-10.06 2.267 -4.907 0 0 0 
-9.837 2.306 -4.879 0 0 0 
-10.951 2.308 -4.882 0 0 0 
-10.864 2.48 -5.016 0 0 0 
-11.073 2.561 -4.959 0 0 0 
-11.059 2.833 -4.941 0 0 0 
-11.0 2.879 -5.021 0 0 0 
-11.036 2.932 -5.011 0 0 0 
-10.976 3.111 -5.01 0 0 0 
-11.02 3.168 -5.003 0 0 0 
-10.956 2.954 -4.95 0 0 0 
-11.082 2.65 -4.917 0 0 0 
-10.926 2.538 -5.022 0 0 0 
-10.553 2.69 -4.992 0 0 0 
-10.809 2.845 -5.063 0 0 0 
-10.863 3.099 -5.09 0 0 0 
-10.906 3.157 -5.083 0 0 0 
-10.81 3.04 -5.092 0 0 0 
-10.897 2.912 -5.079 0 0 0 
-10.817 2.979 -4.991 0 0 0 
-10.854 3.186 -5.031 0 0 0 
-10.8 3.018 -4.956 0 0 0 
-10.81 3.26 -4.954 0 0 0 
-10.791 2.928 -5.004 0 0 0 
-10.775 3.206 -4.966 0 0 0 
-10.747 2.784 -5.059 0 0 0 
-10.453 3.152 -5.075 0 0 0 
-10.523 3.218 -5.081 0 0 0 
-10.627 3.228 -5.0 0 0 0 
-10.436 3.279 -4.982 0 0 0 
-10.601 3.419 -5.002 0 0 0 
-10.531 3.353 -4.999 0 0 0 
-10.788 2.78 -4.948 0 0 0 
-10.575 3.299 -4.918 0 0 0 
-10.758 3.444 -4.944 0 0 0 
-10.662 3.37 -4.929 0 0 0 
-10.548 3.248 -4.935 0 0 0 
-10.469 2.484 -4.916 0 0 0 
-10.407 2.34 -4.95 0 0 0 
-9.807 2.347 -4.965 0 0 0 
-10.358 3.079 -5.056 0 0 0 
-10.313 2.74 -5.084 0 0 0 
-10.219 2.905 -5.067 0 0 0 
-10.098 3.214 -5.076 0 0 0 
-10.085 3.656 -5.058 0 0 0 
-10.081 3.253 -5.039 0 0 0 
-9.985 3.331 -5.061 0 0 0 
-9.971 3.775 -5.033 0 0 0 
-10.188 2.433 -5.032 0 0 0 
-10.372 2.699 -5.009 0 0 0 
-10.161 2.471 -4.997 0 0 0 
-10.34 3.359 -5.008 0 0 0 
-10.275 2.718 -4.939 0 0 0 
-10.245 3.001 -5.028 0 0 0 
-10.185 3.222 -4.99 0 0 0 
-10.107 3.306 -5.023 0 0 0 
-10.009 3.673 -4.987 0 0 0 
-10.098 3.151 -4.975 0 0 0 
-10.185 3.265 -4.961 0 0 0 
-9.92 2.549 -4.936 0 0 0 
-11.049 2.372 -4.906 0 0 0 
-10.461 2.525 -4.89 0 0 0 
-11.166 2.527 -4.893 0 0 0 
-10.844 3.16 -4.895 0 0 0 
-10.74 3.282 -4.893 0 0 0 
-10.602 2.689 -4.887 0 0 0 
-10.174 2.423 -4.901 0 0 0 
-10.003 2.475 -4.898 0 0 0 
-10.065 2.577 -4.884 0 0 0 
-11.396 2.254 -4.879 0 0 0 
-11.439 2.744 -4.786 0 0 0 
-11.415 2.332 -4.718 0 0 0 
-10.852 2.202 -4.878 0 0 0 
-11.197 2.299 -4.754 0 0 0 
-10.591 2.281 -4.826 0 0 0 
-10.555 2.231 -4.83 0 0 0 
-9.919 2.278 -4.818 0 0 0 
-10.736 2.22 -4.806 0 0 0 
-10.295 2.308 -4.773 0 0 0 
-10.08 2.309 -4.775 0 0 0 
-9.928 2.322 -4.802 0 0 0 
-11.097 2.33 -4.819 0 0 0 
-10.778 2.45 -4.849 0 0 0 
-10.921 3.074 -4.854 0 0 0 
-10.876 2.558 -4.849 0 0 0 
-10.817 3.195 -4.855 0 0 0 
-10.861 3.251 -4.847 0 0 0 
-11.112 2.557 -4.847 0 0 0 
-10.707 2.349 -4.859 0 0 0 
-10.653 2.38 -4.814 0 0 0 
-10.562 2.496 -4.833 0 0 0 
-9.986 2.514 -4.868 0 0 0 
-10.174 2.551 -4.835 0 0 0 
-10.407 2.598 -4.82 0 0 0 
-10.025 2.793 -4.87 0 0 0 
-9.946 2.728 -4.856 0 0 0 
-10.213 2.381 -4.817 0 0 0 
-10.915 2.428 -4.804 0 0 0 
-11.079 2.452 -4.748 0 0 0 
-10.965 3.214 -4.791 0 0 0 
-10.97 3.023 -4.774 0 0 0 
-10.965 3.256 -4.762 0 0 0 
-10.762 2.352 -4.758 0 0 0 
-9.998 2.423 -4.795 0 0 0 
-10.535 2.532 -4.799 0 0 0 
-10.668 2.691 -4.79 0 0 0 
-10.003 2.688 -4.785 0 0 0 
-9.386 3.707 -4.765 0 0 0 
-9.995 2.727 -4.757 0 0 0 
-11.134 2.244 -4.747 0 0 0 
-11.107 2.363 -4.675 0 0 0 
-11.394 2.775 -4.743 0 0 0 
-11.032 2.665 -4.743 0 0 0 
-11.232 2.653 -4.723 0 0 0 
-11.079 2.576 -4.682 0 0 0 
-11.007 2.301 -4.654 0 0 0 
-10.898 2.33 -4.712 0 0 0 
-10.169 2.496 -4.732 0 0 0 
-10.915 2.553 -4.738 0 0 0 
-10.517 2.611 -4.746 0 0 0 
-10.455 2.554 -4.74 0 0 0 
-10.951 2.603 -4.731 0 0 0 
-10.698 2.641 -4.701 0 0 0 
-9.901 2.441 -4.727 0 0 0 
-9.29 2.478 -4.696 0 0 0 
-9.381 2.804 -4.698 0 0 0 
-9.239 2.859 -4.695 0 0 0 
-10.889 2.369 -4.688 0 0 0 
-9.519 2.57 -4.67 0 0 0 
-9.217 2.715 -4.639 0 0 0 
-14.658 1.846 -4.621 0 0 0 
-14.687 1.89 -4.613 0 0 0 
-10.698 1.83 -4.58 0 0 0 
-10.662 1.863 -4.548 0 0 0 
-10.456 1.829 -4.579 0 0 0 
-8.96 1.864 -4.549 0 0 0 
-14.64 1.924 -4.582 0 0 0 
-14.541 2.436 -4.618 0 0 0 
-11.543 2.386 -4.62 0 0 0 
-10.457 2.541 -4.618 0 0 0 
-14.341 1.939 -4.617 0 0 0 
-14.331 2.099 -4.543 0 0 0 
-14.4 2.372 -4.594 0 0 0 
-14.425 4.18 -4.576 0 0 0 
-14.331 1.979 -4.597 0 0 0 
-11.041 1.966 -4.569 0 0 0 
-14.19 1.999 -4.534 0 0 0 
-14.287 2.314 -4.578 0 0 0 
-14.035 2.376 -4.601 0 0 0 
-12.027 2.592 -4.614 0 0 0 
-9.09 2.384 -4.616 0 0 0 
-13.952 2.589 -4.609 0 0 0 
-13.151 4.183 -4.579 0 0 0 
-14.096 4.183 -4.579 0 0 0 
-13.777 4.186 -4.582 0 0 0 
-13.477 4.19 -4.587 0 0 0 
-12.22 2.531 -4.6 0 0 0 
-10.799 2.431 -4.607 0 0 0 
-10.844 2.481 -4.605 0 0 0 
-9.191 2.788 -4.578 0 0 0 
-9.062 2.629 -4.584 0 0 0 
-8.981 2.739 -4.588 0 0 0 
-11.834 2.213 -4.577 0 0 0 
-13.951 2.402 -4.552 0 0 0 
-10.925 2.152 -4.553 0 0 0 
-11.661 2.836 -4.567 0 0 0 
-13.654 5.74 -4.569 0 0 0 
-13.419 5.961 -4.576 0 0 0 
-13.262 5.851 -4.574 0 0 0 
-13.689 6.162 -4.561 0 0 0 
-13.515 6.044 -4.556 0 0 0 
-12.822 6.132 -4.538 0 0 0 
-11.116 2.351 -4.553 0 0 0 
-8.968 2.312 -4.575 0 0 0 
-9.074 2.292 -4.535 0 0 0 
-10.872 2.393 -4.535 0 0 0 
-8.975 2.564 -4.563 0 0 0 
-9.015 3.751 -4.568 0 0 0 
-8.889 2.499 -4.542 0 0 0 
-9.021 2.446 -4.539 0 0 0 
-10.925 2.192 -4.534 0 0 0 
-22.564 1.857 -4.533 0 0 0 
-19.653 2.014 -4.166 0 0 0 
-19.859 5.768 -4.191 0 0 0 
-19.934 5.863 -4.104 0 0 0 
-19.887 5.813 -4.146 0 0 0 
-19.604 1.896 -4.011 0 0 0 
-14.784 1.815 -4.217 0 0 0 
-15.032 1.958 -4.237 0 0 0 
-15.015 2.037 -4.513 0 0 0 
-15.115 1.991 -4.41 0 0 0 
-15.095 2.027 -4.387 0 0 0 
-15.086 2.064 -4.366 0 0 0 
-15.051 1.997 -4.225 0 0 0 
-14.889 1.865 -4.23 0 0 0 
-14.578 1.861 -4.432 0 0 0 
-14.629 1.851 -4.301 0 0 0 
-14.772 1.907 -4.327 0 0 0 
-14.749 1.962 -4.45 0 0 0 
-14.654 1.91 -4.438 0 0 0 
-14.908 1.904 -4.219 0 0 0 
-15.158 2.022 -4.09 0 0 0 
-15.07 2.074 -4.195 0 0 0 
-15.053 1.972 -4.079 0 0 0 
-15.042 2.033 -4.205 0 0 0 
-14.515 1.799 -4.284 0 0 0 
-10.566 1.795 -4.17 0 0 0 
-10.485 1.791 -4.371 0 0 0 
-9.6 1.795 -4.493 0 0 0 
-9.623 1.799 -4.392 0 0 0 
-10.707 1.811 -4.108 0 0 0 
-14.511 1.814 -4.428 0 0 0 
-14.218 2.043 -4.525 0 0 0 
-12.489 1.841 -4.494 0 0 0 
-10.959 2.071 -4.482 0 0 0 
-10.883 1.854 -4.415 0 0 0 
-10.731 1.95 -4.423 0 0 0 
-10.589 1.93 -4.484 0 0 0 
-8.941 1.86 -4.429 0 0 0 
-10.653 1.981 -4.494 0 0 0 
-10.643 2.019 -4.472 0 0 0 
-10.883 1.893 -4.399 0 0 0 
-10.952 1.936 -4.289 0 0 0 
-10.746 1.983 -4.292 0 0 0 
-10.718 1.903 -4.315 0 0 0 
-10.713 1.857 -4.212 0 0 0 
-10.7 1.937 -4.291 0 0 0 
-10.833 1.989 -4.208 0 0 0 
-10.731 1.934 -4.186 0 0 0 
-10.911 2.052 -4.34 0 0 0 
-10.713 2.062 -4.363 0 0 0 
-12.525 2.048 -4.142 0 0 0 
-10.882 1.95 -4.126 0 0 0 
33.471 1.947 -4.118 0 0 0 
-12.687 1.947 -4.118 0 0 0 
-12.621 1.973 -4.08 0 0 0 
-12.565 1.892 -4.095 0 0 0 
-11.125 1.945 -4.115 0 0 0 
-11.106 1.978 -4.091 0 0 0 
-10.725 1.85 -4.099 0 0 0 
-10.762 1.893 -4.097 0 0 0 
33.422 1.98 -4.095 0 0 0 
-12.384 1.989 -4.113 0 0 0 
-11.218 2.07 -4.096 0 0 0 
-12.054 2.024 -4.094 0 0 0 
-14.804 1.797 -4.077 0 0 0 
-14.814 1.87 -4.047 0 0 0 
-15.168 2.059 -4.074 0 0 0 
-14.909 1.918 -4.057 0 0 0 
-14.794 1.832 -4.058 0 0 0 
-11.257 1.955 -4.043 0 0 0 
-11.239 1.916 -4.054 0 0 0 
-10.801 1.783 -4.043 0 0 0 
-11.081 1.783 -4.045 0 0 0 
-10.912 1.872 -4.053 0 0 0 
-11.22 1.984 -4.013 0 0 0 
-11.032 2.0 -4.046 0 0 0 
-10.838 1.824 -4.041 0 0 0 
-11.51 1.984 -4.013 0 0 0 
-12.584 2.002 -4.05 0 0 0 
33.353 2.047 -4.051 0 0 0 
33.372 2.013 -4.071 0 0 0 
-11.285 2.031 -4.018 0 0 0 
-19.524 2.08 -4.301 0 0 0 
-15.048 2.097 -4.337 0 0 0 
-15.53 2.982 -4.53 0 0 0 
-16.784 5.389 -4.527 0 0 0 
-15.659 4.759 -4.524 0 0 0 
-15.595 4.506 -4.517 0 0 0 
-16.913 5.47 -4.514 0 0 0 
-14.416 2.191 -4.532 0 0 0 
-15.1 2.128 -4.502 0 0 0 
-15.062 2.162 -4.472 0 0 0 
-15.464 3.008 -4.485 0 0 0 
-16.935 4.812 -4.496 0 0 0 
-16.925 4.332 -4.497 0 0 0 
-15.373 4.633 -4.483 0 0 0 
-16.174 3.177 -4.477 0 0 0 
-15.35 2.671 -4.474 0 0 0 
-15.345 4.395 -4.483 0 0 0 
-15.129 2.211 -4.472 0 0 0 
-15.157 2.254 -4.461 0 0 0 
-16.097 2.918 -4.434 0 0 0 
-16.23 3.228 -4.465 0 0 0 
-17.506 9.407 -4.47 0 0 0 
-16.944 4.854 -4.456 0 0 0 
-16.925 4.371 -4.459 0 0 0 
-15.984 3.101 -4.452 0 0 0 
-15.426 3.04 -4.447 0 0 0 
-17.177 5.0 -4.43 0 0 0 
-16.821 5.48 -4.441 0 0 0 
-16.259 3.273 -4.444 0 0 0 
-15.319 2.357 -4.468 0 0 0 
-15.133 4.521 -4.453 0 0 0 
-15.119 2.288 -4.43 0 0 0 
-15.955 2.931 -4.369 0 0 0 
-16.991 4.907 -4.425 0 0 0 
-17.326 5.082 -4.424 0 0 0 
-17.419 5.148 -4.402 0 0 0 
-17.559 5.229 -4.392 0 0 0 
-16.946 3.991 -4.369 0 0 0 
-16.928 3.948 -4.399 0 0 0 
-16.944 4.415 -4.425 0 0 0 
-16.944 4.492 -4.347 0 0 0 
-16.944 4.454 -4.386 0 0 0 
-16.729 5.488 -4.369 0 0 0 
-15.945 2.967 -4.341 0 0 0 
-16.107 3.074 -4.331 0 0 0 
-16.973 4.776 -4.306 0 0 0 
-16.965 4.034 -4.339 0 0 0 
-16.941 4.296 -4.306 0 0 0 
-16.097 3.11 -4.302 0 0 0 
-17.363 5.208 -4.297 0 0 0 
-16.173 3.162 -4.294 0 0 0 
-15.964 3.009 -4.32 0 0 0 
-15.186 2.375 -4.408 0 0 0 
-15.086 2.216 -4.291 0 0 0 
-15.024 2.427 -4.319 0 0 0 
-14.965 4.89 -4.41 0 0 0 
-14.962 2.123 -4.293 0 0 0 
-14.958 2.378 -4.321 0 0 0 
-14.928 8.561 -4.349 0 0 0 
-14.278 4.177 -4.492 0 0 0 
-14.617 4.174 -4.489 0 0 0 
-14.645 4.299 -4.385 0 0 0 
-14.131 4.173 -4.41 0 0 0 
-14.488 4.176 -4.413 0 0 0 
-14.479 4.212 -4.373 0 0 0 
-14.232 4.319 -4.328 0 0 0 
-14.921 4.419 -4.429 0 0 0 
-14.833 8.837 -4.489 0 0 0 
-14.903 8.508 -4.417 0 0 0 
-14.819 4.804 -4.409 0 0 0 
-14.462 4.427 -4.36 0 0 0 
-14.561 4.91 -4.35 0 0 0 
-14.415 4.822 -4.349 0 0 0 
-14.924 2.635 -4.327 0 0 0 
-14.178 4.705 -4.319 0 0 0 
-14.049 4.848 -4.295 0 0 0 
-14.048 2.097 -4.435 0 0 0 
-11.203 2.146 -4.438 0 0 0 
-11.03 2.151 -4.35 0 0 0 
-10.914 2.179 -4.407 0 0 0 
-10.75 2.108 -4.36 0 0 0 
-11.564 2.187 -4.328 0 0 0 
-13.923 2.476 -4.5 0 0 0 
-13.958 4.182 -4.498 0 0 0 
-13.904 2.433 -4.516 0 0 0 
-11.116 2.391 -4.532 0 0 0 
-10.961 2.279 -4.51 0 0 0 
-11.342 2.463 -4.476 0 0 0 
-11.079 2.423 -4.496 0 0 0 
-10.799 2.416 -4.484 0 0 0 
-9.003 2.481 -4.508 0 0 0 
-10.908 2.52 -4.485 0 0 0 
-11.835 2.59 -4.518 0 0 0 
-11.071 2.597 -4.529 0 0 0 
-13.042 4.188 -4.505 0 0 0 
-12.772 4.195 -4.512 0 0 0 
-13.332 4.185 -4.501 0 0 0 
-13.622 4.178 -4.494 0 0 0 
-12.458 4.183 -4.499 0 0 0 
-13.806 5.722 -4.474 0 0 0 
-13.637 6.179 -4.489 0 0 0 
-9.032 3.838 -4.51 0 0 0 
-8.998 3.784 -4.526 0 0 0 
-11.614 2.211 -4.473 0 0 0 
-11.632 2.486 -4.335 0 0 0 
-13.857 2.504 -4.457 0 0 0 
-11.652 2.769 -4.459 0 0 0 
-13.416 5.679 -4.44 0 0 0 
-13.329 6.368 -4.458 0 0 0 
-13.675 7.399 -4.439 0 0 0 
-11.607 2.719 -4.466 0 0 0 
-11.67 2.593 -4.432 0 0 0 
-11.661 2.849 -4.413 0 0 0 
-13.204 4.184 -4.421 0 0 0 
-12.368 4.192 -4.43 0 0 0 
-12.1 4.192 -4.43 0 0 0 
-12.916 4.187 -4.424 0 0 0 
-12.646 4.193 -4.43 0 0 0 
-13.821 4.18 -4.417 0 0 0 
-14.03 4.22 -4.304 0 0 0 
-14.03 4.182 -4.341 0 0 0 
-13.494 4.178 -4.415 0 0 0 
-13.366 4.177 -4.337 0 0 0 
-12.502 4.183 -4.343 0 0 0 
-12.798 4.187 -4.347 0 0 0 
-12.242 4.188 -4.348 0 0 0 
-11.984 4.19 -4.35 0 0 0 
-11.735 4.193 -4.353 0 0 0 
-13.077 4.182 -4.342 0 0 0 
-13.675 4.174 -4.334 0 0 0 
-13.771 5.588 -4.368 0 0 0 
-13.616 7.406 -4.354 0 0 0 
-13.771 5.626 -4.319 0 0 0 
-13.474 6.386 -4.305 0 0 0 
-13.186 5.815 -4.304 0 0 0 
-11.615 2.772 -4.294 0 0 0 
-11.601 2.232 -4.322 0 0 0 
-11.094 2.202 -4.357 0 0 0 
-8.891 2.207 -4.463 0 0 0 
-11.051 2.245 -4.443 0 0 0 
-11.375 2.242 -4.342 0 0 0 
-11.586 2.245 -4.443 0 0 0 
-11.333 2.539 -4.429 0 0 0 
-11.579 2.791 -4.407 0 0 0 
-11.379 2.627 -4.401 0 0 0 
-11.496 4.196 -4.356 0 0 0 
-11.322 2.286 -4.427 0 0 0 
-11.069 2.327 -4.41 0 0 0 
-11.315 2.496 -4.444 0 0 0 
-11.27 2.663 -4.461 0 0 0 
-11.206 2.609 -4.459 0 0 0 
-11.134 2.553 -4.453 0 0 0 
-11.288 2.706 -4.445 0 0 0 
-11.242 2.557 -4.371 0 0 0 
-11.007 2.446 -4.446 0 0 0 
-10.817 2.46 -4.47 0 0 0 
-9.029 2.606 -4.454 0 0 0 
-8.982 3.666 -4.465 0 0 0 
-8.957 3.695 -4.42 0 0 0 
-10.979 2.479 -4.413 0 0 0 
-8.83 2.472 -4.4 0 0 0 
31.719 7.123 -4.359 0 0 0 
-10.978 2.346 -4.353 0 0 0 
-11.448 2.295 -4.35 0 0 0 
-11.432 2.578 -4.319 0 0 0 
-11.515 2.673 -4.304 0 0 0 
-11.57 2.724 -4.301 0 0 0 
-11.43 2.33 -4.323 0 0 0 
31.549 7.453 -4.294 0 0 0 
-19.563 2.121 -4.291 0 0 0 
-15.264 2.144 -4.063 0 0 0 
-16.081 2.331 -4.066 0 0 0 
-16.311 2.473 -4.061 0 0 0 
-16.973 4.813 -4.264 0 0 0 
-16.951 4.336 -4.27 0 0 0 
-17.59 5.14 -4.241 0 0 0 
-16.979 4.491 -4.122 0 0 0 
-17.122 4.93 -4.216 0 0 0 
-17.235 5.0 -4.2 0 0 0 
-16.975 4.26 -4.122 0 0 0 
-16.96 4.376 -4.234 0 0 0 
-16.973 4.85 -4.222 0 0 0 
-16.96 4.413 -4.196 0 0 0 
-16.96 4.45 -4.157 0 0 0 
-17.637 5.191 -4.207 0 0 0 
-16.604 5.352 -4.184 0 0 0 
-16.637 5.534 -4.248 0 0 0 
-16.595 5.312 -4.228 0 0 0 
-17.674 5.239 -4.17 0 0 0 
-16.539 5.367 -4.12 0 0 0 
-16.507 5.528 -4.167 0 0 0 
-16.365 2.708 -4.114 0 0 0 
-16.025 2.736 -4.157 0 0 0 
-16.229 3.007 -4.236 0 0 0 
-16.23 3.211 -4.281 0 0 0 
-16.21 3.04 -4.205 0 0 0 
-16.238 3.119 -4.158 0 0 0 
-16.2 3.075 -4.176 0 0 0 
-16.086 2.943 -4.225 0 0 0 
-16.063 2.779 -4.142 0 0 0 
-16.197 2.875 -4.127 0 0 0 
-16.219 3.152 -4.126 0 0 0 
-16.226 2.916 -4.109 0 0 0 
-16.14 2.828 -4.137 0 0 0 
-16.24 2.651 -4.106 0 0 0 
-16.451 2.794 -4.087 0 0 0 
-17.859 3.483 -4.093 0 0 0 
-16.984 4.298 -4.087 0 0 0 
-16.595 5.421 -4.087 0 0 0 
-17.019 4.772 -4.08 0 0 0 
-16.719 2.948 -4.078 0 0 0 
-16.818 3.278 -4.065 0 0 0 
-16.374 2.745 -4.093 0 0 0 
-16.254 2.957 -4.09 0 0 0 
-16.134 3.171 -4.076 0 0 0 
-16.293 3.0 -4.074 0 0 0 
-15.656 2.38 -4.067 0 0 0 
-15.305 2.729 -4.069 0 0 0 
-15.515 2.803 -4.1 0 0 0 
-16.129 2.374 -4.058 0 0 0 
-15.29 2.289 -4.159 0 0 0 
-15.21 2.677 -4.067 0 0 0 
-15.312 2.186 -4.057 0 0 0 
-15.426 2.309 -4.028 0 0 0 
-16.443 5.578 -4.053 0 0 0 
-16.413 2.823 -4.053 0 0 0 
-16.186 2.418 -4.051 0 0 0 
-16.292 2.505 -4.034 0 0 0 
-16.311 2.544 -4.017 0 0 0 
-16.984 4.334 -4.049 0 0 0 
-16.681 2.977 -4.042 0 0 0 
-16.293 3.036 -4.047 0 0 0 
-16.641 5.472 -4.05 0 0 0 
-16.47 2.869 -4.042 0 0 0 
-16.796 3.069 -4.017 0 0 0 
-17.009 4.805 -4.036 0 0 0 
-16.802 5.353 -4.035 0 0 0 
-17.741 5.156 -4.031 0 0 0 
-17.003 4.374 -4.015 0 0 0 
-16.748 3.024 -4.032 0 0 0 
-16.312 3.075 -4.025 0 0 0 
-16.522 3.185 -4.021 0 0 0 
-16.678 5.52 -4.011 0 0 0 
-15.618 2.409 -4.036 0 0 0 
-15.309 2.543 -4.016 0 0 0 
-15.433 2.599 -4.026 0 0 0 
-15.302 2.22 -4.035 0 0 0 
-15.283 2.253 -4.01 0 0 0 
-15.178 2.096 -4.059 0 0 0 
-12.628 2.101 -4.158 0 0 0 
-11.443 2.095 -4.056 0 0 0 
33.353 2.083 -4.033 0 0 0 
-11.255 2.113 -4.091 0 0 0 
-15.089 2.113 -4.182 0 0 0 
-15.0 2.241 -4.247 0 0 0 
-15.034 2.541 -4.257 0 0 0 
-15.019 2.281 -4.232 0 0 0 
-15.0 2.166 -4.285 0 0 0 
-12.606 2.154 -4.262 0 0 0 
-14.996 2.46 -4.29 0 0 0 
-14.533 4.976 -4.255 0 0 0 
-13.592 4.187 -4.271 0 0 0 
-13.239 4.175 -4.259 0 0 0 
-12.671 4.184 -4.268 0 0 0 
-12.394 4.185 -4.269 0 0 0 
-12.135 4.189 -4.273 0 0 0 
-11.886 4.194 -4.278 0 0 0 
-12.941 4.176 -4.26 0 0 0 
-13.713 4.477 -4.256 0 0 0 
-13.932 4.586 -4.284 0 0 0 
-13.565 7.416 -4.273 0 0 0 
-13.535 6.453 -4.267 0 0 0 
-13.39 5.588 -4.29 0 0 0 
-13.256 5.884 -4.275 0 0 0 
-13.813 4.729 -4.264 0 0 0 
-14.939 2.488 -4.252 0 0 0 
-13.948 5.614 -4.232 0 0 0 
-13.638 4.239 -4.248 0 0 0 
-13.399 5.629 -4.243 0 0 0 
-13.335 5.956 -4.248 0 0 0 
-12.441 6.421 -4.247 0 0 0 
-13.595 4.617 -4.238 0 0 0 
-13.51 4.953 -4.235 0 0 0 
-13.193 5.316 -4.232 0 0 0 
-13.458 6.048 -4.234 0 0 0 
-11.838 2.26 -4.283 0 0 0 
-11.396 2.608 -4.283 0 0 0 
-11.611 4.186 -4.27 0 0 0 
-11.597 2.805 -4.262 0 0 0 
-11.39 4.195 -4.279 0 0 0 
-10.889 4.182 -4.266 0 0 0 
-11.152 4.195 -4.279 0 0 0 
31.395 7.748 -4.285 0 0 0 
31.23 8.042 -4.265 0 0 0 
-11.797 2.749 -4.258 0 0 0 
31.092 8.343 -4.238 0 0 0 
-12.559 2.183 -4.228 0 0 0 
-14.986 2.57 -4.221 0 0 0 
-14.986 2.607 -4.198 0 0 0 
-14.953 2.307 -4.193 0 0 0 
-11.347 2.462 -4.208 0 0 0 
-11.315 2.214 -4.197 0 0 0 
-12.629 2.517 -4.217 0 0 0 
-13.494 4.368 -4.227 0 0 0 
31.405 7.788 -4.218 0 0 0 
-13.648 7.318 -4.216 0 0 0 
-13.513 5.558 -4.189 0 0 0 
-13.359 4.5 -4.204 0 0 0 
-11.769 4.19 -4.199 0 0 0 
-10.601 4.193 -4.203 0 0 0 
-11.046 4.192 -4.202 0 0 0 
-10.81 4.189 -4.198 0 0 0 
-11.284 4.193 -4.202 0 0 0 
-10.392 4.195 -4.205 0 0 0 
-13.166 4.189 -4.198 0 0 0 
-12.545 4.179 -4.188 0 0 0 
-12.841 4.181 -4.191 0 0 0 
-12.286 4.186 -4.195 0 0 0 
-11.504 4.185 -4.194 0 0 0 
-12.018 4.186 -4.195 0 0 0 
-13.275 4.261 -4.196 0 0 0 
-13.186 4.406 -4.189 0 0 0 
31.202 8.072 -4.19 0 0 0 
-13.213 4.807 -4.184 0 0 0 
-15.166 2.161 -4.184 0 0 0 
-15.175 2.235 -4.148 0 0 0 
-15.124 2.481 -4.157 0 0 0 
-15.175 2.308 -4.108 0 0 0 
-15.175 2.344 -4.088 0 0 0 
-15.156 2.377 -4.062 0 0 0 
-15.124 2.626 -4.067 0 0 0 
-15.124 2.59 -4.09 0 0 0 
-15.118 2.406 -4.031 0 0 0 
-15.147 2.446 -4.017 0 0 0 
-15.118 2.19 -4.152 0 0 0 
33.362 2.119 -4.016 0 0 0 
-11.874 2.155 -4.084 0 0 0 
-11.814 2.236 -4.149 0 0 0 
-14.977 2.642 -4.172 0 0 0 
-13.474 4.977 -4.18 0 0 0 
-14.433 4.978 -4.182 0 0 0 
-13.354 5.648 -4.18 0 0 0 
-14.943 2.343 -4.17 0 0 0 
-15.057 2.434 -4.16 0 0 0 
-15.024 2.687 -4.162 0 0 0 
-15.086 2.512 -4.125 0 0 0 
-15.057 2.543 -4.095 0 0 0 
-14.934 2.378 -4.147 0 0 0 
-13.06 4.538 -4.165 0 0 0 
-12.979 4.686 -4.151 0 0 0 
-12.968 4.296 -4.157 0 0 0 
-12.805 4.206 -4.142 0 0 0 
-12.644 4.322 -4.109 0 0 0 
-12.159 4.179 -4.115 0 0 0 
-11.91 4.185 -4.121 0 0 0 
-12.445 4.182 -4.119 0 0 0 
-12.445 4.218 -4.082 0 0 0 
-12.394 4.368 -4.081 0 0 0 
-12.834 4.423 -4.132 0 0 0 
-12.942 4.851 -4.148 0 0 0 
-12.79 4.581 -4.131 0 0 0 
-12.718 4.731 -4.118 0 0 0 
-12.565 4.465 -4.098 0 0 0 
-12.52 4.621 -4.094 0 0 0 
-12.475 4.779 -4.086 0 0 0 
-14.572 4.91 -4.124 0 0 0 
-13.85 5.611 -4.153 0 0 0 
-13.847 5.037 -4.156 0 0 0 
-13.602 5.631 -4.168 0 0 0 
-13.301 5.096 -4.13 0 0 0 
-12.743 4.918 -4.131 0 0 0 
-13.085 4.941 -4.15 0 0 0 
-13.157 5.005 -4.129 0 0 0 
-13.294 4.946 -4.081 0 0 0 
-13.292 5.128 -4.082 0 0 0 
-13.841 5.644 -4.101 0 0 0 
-13.744 5.727 -4.161 0 0 0 
-13.414 6.066 -4.167 0 0 0 
-13.742 6.493 -4.132 0 0 0 
-13.575 6.012 -4.13 0 0 0 
-13.648 7.355 -4.152 0 0 0 
-13.798 5.785 -4.126 0 0 0 
-13.795 6.182 -4.089 0 0 0 
-13.301 5.855 -4.099 0 0 0 
-13.583 6.052 -4.08 0 0 0 
-13.648 7.391 -4.087 0 0 0 
-14.072 5.614 -4.079 0 0 0 
-13.936 6.282 -4.075 0 0 0 
-11.814 2.199 -4.169 0 0 0 
-11.288 2.39 -4.085 0 0 0 
-11.31 2.195 -4.073 0 0 0 
-11.491 2.397 -4.18 0 0 0 
-11.476 2.638 -4.165 0 0 0 
-11.329 2.495 -4.179 0 0 0 
31.073 8.375 -4.162 0 0 0 
-11.31 2.527 -4.15 0 0 0 
-11.356 2.574 -4.145 0 0 0 
-11.684 2.621 -4.139 0 0 0 
-11.644 4.182 -4.118 0 0 0 
-11.397 4.182 -4.119 0 0 0 
-11.16 4.183 -4.12 0 0 0 
-10.505 4.192 -4.128 0 0 0 
-10.306 4.197 -4.133 0 0 0 
-10.098 4.196 -4.132 0 0 0 
-10.941 4.189 -4.125 0 0 0 
-10.714 4.188 -4.124 0 0 0 
-9.875 4.186 -4.122 0 0 0 
-9.686 4.188 -4.124 0 0 0 
31.064 8.408 -4.087 0 0 0 
30.885 8.662 -4.116 0 0 0 
31.221 8.113 -4.121 0 0 0 
-11.892 2.194 -4.071 0 0 0 
-11.61 2.304 -4.018 0 0 0 
-13.793 5.09 -4.051 0 0 0 
-12.323 4.513 -4.07 0 0 0 
-12.186 4.26 -4.05 0 0 0 
-12.252 4.658 -4.054 0 0 0 
-12.096 4.193 -4.057 0 0 0 
-11.803 4.183 -4.048 0 0 0 
-13.702 5.021 -4.069 0 0 0 
-13.402 5.022 -4.07 0 0 0 
-14.453 4.905 -4.047 0 0 0 
-14.019 5.245 -4.026 0 0 0 
-12.108 4.399 -4.037 0 0 0 
-12.055 4.548 -4.029 0 0 0 
-11.928 4.299 -4.016 0 0 0 
-11.794 4.215 -4.008 0 0 0 
-12.002 4.698 -4.017 0 0 0 
-11.992 4.866 -4.015 0 0 0 
-13.985 5.044 -4.015 0 0 0 
-13.814 5.669 -4.043 0 0 0 
-13.815 6.062 -4.009 0 0 0 
-13.375 5.048 -4.018 0 0 0 
-13.64 7.422 -4.02 0 0 0 
-11.592 2.229 -4.052 0 0 0 
-11.131 2.286 -4.069 0 0 0 
-11.329 2.234 -4.061 0 0 0 
-11.329 2.27 -4.041 0 0 0 
-11.319 2.303 -4.017 0 0 0 
-11.251 2.418 -4.051 0 0 0 
-11.223 2.448 -4.02 0 0 0 
-11.426 2.528 -4.07 0 0 0 
-10.409 4.189 -4.054 0 0 0 
-10.193 4.186 -4.051 0 0 0 
-9.995 4.189 -4.053 0 0 0 
-9.235 4.188 -4.052 0 0 0 
-9.797 4.189 -4.053 0 0 0 
30.705 8.95 -4.062 0 0 0 
-9.609 4.19 -4.055 0 0 0 
-9.422 4.19 -4.054 0 0 0 
-11.071 4.186 -4.051 0 0 0 
-11.528 4.176 -4.041 0 0 0 
-10.817 4.177 -4.042 0 0 0 
-11.299 4.182 -4.047 0 0 0 
-10.617 4.186 -4.05 0 0 0 
30.838 8.684 -4.034 0 0 0 
31.044 8.439 -4.01 0 0 0 
-20.971 1.724 -4.007 0 0 0 
-20.658 1.768 -3.916 0 0 0 
-19.76 1.765 -3.91 0 0 0 
-19.75 1.798 -3.893 0 0 0 
-21.098 1.841 -3.984 0 0 0 
-19.887 2.065 -3.998 0 0 0 
-23.856 6.781 -3.987 0 0 0 
-19.751 2.016 -3.989 0 0 0 
-21.147 1.88 -3.977 0 0 0 
-24.046 6.905 -3.898 0 0 0 
-24.584 7.62 -3.955 0 0 0 
-23.885 6.824 -3.932 0 0 0 
-19.691 1.725 -3.912 0 0 0 
-12.216 1.805 -3.998 0 0 0 
-11.84 1.797 -3.981 0 0 0 
-11.053 1.849 -4.003 0 0 0 
-10.932 1.794 -3.975 0 0 0 
-11.343 1.92 -3.971 0 0 0 
-11.906 1.877 -3.971 0 0 0 
-11.184 1.789 -3.964 0 0 0 
-11.717 1.932 -3.997 0 0 0 
-14.852 1.746 -3.961 0 0 0 
-14.785 1.842 -3.896 0 0 0 
-14.785 1.91 -3.863 0 0 0 
-14.785 1.773 -3.928 0 0 0 
-11.287 1.725 -3.913 0 0 0 
-11.212 1.748 -3.872 0 0 0 
-14.766 1.805 -3.907 0 0 0 
-11.812 1.828 -3.956 0 0 0 
-11.212 1.863 -3.942 0 0 0 
-11.128 1.815 -3.929 0 0 0 
-11.381 1.808 -3.914 0 0 0 
-11.53 1.867 -3.949 0 0 0 
-14.746 1.871 -3.87 0 0 0 
-19.614 1.932 -3.996 0 0 0 
-16.263 2.571 -3.982 0 0 0 
-17.009 4.84 -3.994 0 0 0 
-16.312 3.11 -3.998 0 0 0 
-16.446 2.67 -3.981 0 0 0 
-17.131 4.91 -3.979 0 0 0 
-16.765 5.376 -3.979 0 0 0 
-15.764 2.25 -4.006 0 0 0 
33.362 2.154 -3.997 0 0 0 
33.382 2.19 -3.98 0 0 0 
-11.706 2.195 -3.988 0 0 0 
-15.541 2.433 -3.995 0 0 0 
-15.147 2.481 -3.995 0 0 0 
-13.966 6.536 -3.999 0 0 0 
-11.85 4.436 -4.0 0 0 0 
-11.824 4.593 -3.998 0 0 0 
-14.076 5.112 -3.997 0 0 0 
-14.073 5.3 -3.995 0 0 0 
-13.955 5.603 -3.996 0 0 0 
30.514 9.235 -3.996 0 0 0 
-11.48 2.243 -3.993 0 0 0 
-11.797 4.752 -3.992 0 0 0 
-11.457 4.185 -3.979 0 0 0 
-14.6 4.838 -3.992 0 0 0 
-13.797 5.697 -3.988 0 0 0 
-13.702 5.091 -3.98 0 0 0 
-13.393 5.09 -3.979 0 0 0 
-11.282 2.331 -3.984 0 0 0 
-10.313 4.186 -3.98 0 0 0 
-10.106 4.186 -3.98 0 0 0 
-9.345 4.191 -3.985 0 0 0 
-8.991 4.191 -3.985 0 0 0 
-9.176 4.196 -3.989 0 0 0 
-8.814 4.188 -3.982 0 0 0 
-9.524 4.188 -3.982 0 0 0 
30.677 8.978 -3.979 0 0 0 
-19.614 1.967 -3.979 0 0 0 
-15.082 2.017 -3.906 0 0 0 
-16.247 2.032 -3.936 0 0 0 
-15.409 2.165 -3.935 0 0 0 
-16.314 2.358 -3.951 0 0 0 
-16.436 2.704 -3.955 0 0 0 
-16.681 3.082 -3.963 0 0 0 
-17.003 4.41 -3.976 0 0 0 
-17.244 4.977 -3.962 0 0 0 
-16.706 5.564 -3.969 0 0 0 
-16.647 2.808 -3.957 0 0 0 
-16.542 2.756 -3.956 0 0 0 
-18.087 3.487 -3.954 0 0 0 
-16.33 2.617 -3.976 0 0 0 
-16.391 2.404 -3.948 0 0 0 
-16.208 2.308 -3.945 0 0 0 
-15.541 2.468 -3.974 0 0 0 
-15.608 2.513 -3.969 0 0 0 
-16.035 2.215 -3.943 0 0 0 
-16.429 2.444 -3.936 0 0 0 
-17.003 4.444 -3.938 0 0 0 
-16.784 5.417 -3.936 0 0 0 
-16.676 2.848 -3.939 0 0 0 
-16.506 2.491 -3.933 0 0 0 
-16.583 2.571 -3.907 0 0 0 
-16.671 3.15 -3.906 0 0 0 
-16.867 5.479 -3.907 0 0 0 
-17.007 4.253 -3.904 0 0 0 
-16.652 3.112 -3.929 0 0 0 
-16.628 2.874 -3.903 0 0 0 
-17.876 3.48 -3.878 0 0 0 
-17.016 4.29 -3.868 0 0 0 
-16.647 2.911 -3.882 0 0 0 
-16.643 3.179 -3.871 0 0 0 
-16.564 2.534 -3.925 0 0 0 
-16.525 2.596 -3.87 0 0 0 
-16.558 5.549 -3.885 0 0 0 
-16.421 2.227 -3.884 0 0 0 
-16.083 2.256 -3.935 0 0 0 
-15.169 2.097 -3.892 0 0 0 
-15.082 2.051 -3.888 0 0 0 
-16.035 2.04 -3.866 0 0 0 
-16.676 2.951 -3.863 0 0 0 
-16.421 2.261 -3.864 0 0 0 
-15.025 1.975 -3.909 0 0 0 
-11.296 1.981 -3.921 0 0 0 
-11.343 2.024 -3.919 0 0 0 
-11.398 2.171 -3.865 0 0 0 
-11.671 4.334 -3.978 0 0 0 
-11.637 4.486 -3.975 0 0 0 
-11.493 4.233 -3.954 0 0 0 
-11.433 4.373 -3.943 0 0 0 
-11.416 4.531 -3.943 0 0 0 
-11.593 4.636 -3.964 0 0 0 
-11.593 4.804 -3.964 0 0 0 
-11.38 4.85 -3.931 0 0 0 
-11.363 4.675 -3.927 0 0 0 
-14.563 4.861 -3.939 0 0 0 
-13.841 6.109 -3.963 0 0 0 
-11.716 4.891 -3.964 0 0 0 
-14.279 4.881 -3.956 0 0 0 
-14.055 5.328 -3.944 0 0 0 
-13.928 5.627 -3.939 0 0 0 
-13.984 6.579 -3.946 0 0 0 
-13.894 6.167 -3.925 0 0 0 
-13.752 5.713 -3.925 0 0 0 
-11.338 2.412 -3.962 0 0 0 
33.452 2.23 -3.969 0 0 0 
33.6 2.309 -3.947 0 0 0 
33.63 2.346 -3.93 0 0 0 
-11.292 2.368 -3.967 0 0 0 
-10.521 4.183 -3.977 0 0 0 
-9.703 4.183 -3.977 0 0 0 
-9.9 4.184 -3.978 0 0 0 
-10.965 4.181 -3.975 0 0 0 
-11.239 4.426 -3.921 0 0 0 
-11.193 4.178 -3.972 0 0 0 
-10.729 4.178 -3.972 0 0 0 
-8.606 4.202 -3.925 0 0 0 
-11.166 4.202 -3.926 0 0 0 
30.838 8.72 -3.957 0 0 0 
-11.387 2.294 -3.921 0 0 0 
-14.123 4.862 -3.87 0 0 0 
-14.471 4.864 -3.872 0 0 0 
-13.973 5.68 -3.902 0 0 0 
-14.018 6.257 -3.905 0 0 0 
-13.931 5.094 -3.911 0 0 0 
-13.33 5.1 -3.915 0 0 0 
-14.028 5.353 -3.889 0 0 0 
-13.743 5.744 -3.872 0 0 0 
-11.294 2.31 -3.869 0 0 0 
33.65 2.382 -3.911 0 0 0 
-11.246 4.267 -3.917 0 0 0 
-10.885 4.185 -3.91 0 0 0 
-10.208 4.178 -3.903 0 0 0 
-10.641 4.178 -3.903 0 0 0 
-9.813 4.182 -3.907 0 0 0 
-9.617 4.181 -3.906 0 0 0 
-10.019 4.184 -3.909 0 0 0 
-9.447 4.189 -3.913 0 0 0 
-9.26 4.188 -3.912 0 0 0 
-9.083 4.188 -3.912 0 0 0 
-8.756 4.195 -3.919 0 0 0 
-8.923 4.194 -3.918 0 0 0 
-8.423 4.191 -3.915 0 0 0 
-8.274 4.194 -3.918 0 0 0 
-10.424 4.179 -3.904 0 0 0 
-11.053 4.319 -3.895 0 0 0 
-11.205 4.576 -3.913 0 0 0 
30.514 9.269 -3.914 0 0 0 
-11.205 4.741 -3.912 0 0 0 
33.689 2.419 -3.895 0 0 0 
-10.894 4.223 -3.876 0 0 0 
-10.844 4.361 -3.864 0 0 0 
-11.038 4.473 -3.894 0 0 0 
-11.142 4.882 -3.886 0 0 0 
-11.003 4.622 -3.883 0 0 0 
30.6 8.99 -3.89 0 0 0 
-11.011 4.791 -3.883 0 0 0 
33.689 2.453 -3.874 0 0 0 
-42.087 1.744 -3.863 0 0 0 
-21.254 1.739 -3.853 0 0 0 
-19.984 1.991 -3.855 0 0 0 
-8.077 4.205 -3.86 0 0 0 
-10.828 4.515 -3.86 0 0 0 
-10.828 4.677 -3.859 0 0 0 
-8.523 4.195 -3.851 0 0 0 
-8.225 4.203 -3.858 0 0 0 
-7.913 4.197 -3.852 0 0 0 
-7.782 4.204 -3.858 0 0 0 
-8.365 4.196 -3.851 0 0 0 
-17.035 4.752 -3.851 0 0 0 
-16.65 5.615 -3.857 0 0 0 
-10.844 4.849 -3.86 0 0 0 
-16.83 5.501 -3.851 0 0 0 
33.709 2.488 -3.854 0 0 0 
-20.053 2.032 -3.851 0 0 0 
-46.35 0.075 -3.851 0 0 0 
-46.351 0.086 -3.037 0 0 0 
-46.352 0.128 -3.442 0 0 0 
-46.35 0.143 -3.849 0 0 0 
-46.35 0.312 -3.839 0 0 0 
-46.35 0.581 -3.807 0 0 0 
-46.35 0.648 -3.796 0 0 0 
-46.35 0.715 -3.784 0 0 0 
-46.35 0.413 -3.829 0 0 0 
-46.342 0.097 -3.442 0 0 0 
-46.345 0.121 -2.629 0 0 0 
-46.352 0.699 -3.373 0 0 0 
-46.352 0.758 -3.36 0 0 0 
-46.352 1.021 -3.29 0 0 0 
-46.352 1.079 -3.271 0 0 0 
-46.352 1.136 -3.252 0 0 0 
-46.352 0.934 -3.315 0 0 0 
-46.352 0.639 -3.385 0 0 0 
-46.351 0.139 -3.035 0 0 0 
-46.351 0.246 -3.028 0 0 0 
-46.351 0.617 -2.975 0 0 0 
-46.351 0.59 -2.98 0 0 0 
-46.355 0.714 -2.534 0 0 0 
-46.351 0.798 -2.931 0 0 0 
-46.351 0.824 -2.924 0 0 0 
-46.351 1.027 -2.859 0 0 0 
-46.351 1.127 -2.821 0 0 0 
-46.351 1.201 -2.79 0 0 0 
-46.351 1.226 -2.78 0 0 0 
-46.351 1.274 -2.758 0 0 0 
-46.351 1.176 -2.801 0 0 0 
-46.351 0.901 -2.901 0 0 0 
-46.351 0.773 -2.938 0 0 0 
-46.355 0.758 -2.521 0 0 0 
-46.355 0.89 -2.477 0 0 0 
-46.355 0.912 -2.469 0 0 0 
-46.355 1.125 -2.38 0 0 0 
-46.355 1.146 -2.37 0 0 0 
-46.355 1.187 -2.349 0 0 0 
-46.355 1.167 -2.36 0 0 0 
-46.355 0.933 -2.461 0 0 0 
-46.355 0.868 -2.485 0 0 0 
-46.351 0.166 -3.033 0 0 0 
-46.345 0.42 -2.598 0 0 0 
-46.345 0.443 -2.594 0 0 0 
-46.347 0.452 -2.18 0 0 0 
-46.345 0.579 -2.567 0 0 0 
-46.345 0.669 -2.545 0 0 0 
-46.345 0.976 -2.444 0 0 0 
-46.345 1.062 -2.408 0 0 0 
-46.345 0.824 -2.499 0 0 0 
-46.345 0.511 -2.582 0 0 0 
-46.347 0.509 -2.167 0 0 0 
-46.347 0.862 -2.052 0 0 0 
-46.347 0.969 -2.004 0 0 0 
-46.347 1.004 -1.987 0 0 0 
-46.347 0.987 -1.996 0 0 0 
-46.347 0.789 -2.082 0 0 0 
-46.345 0.098 -2.63 0 0 0 
-46.342 0.43 -3.417 0 0 0 
-46.342 0.49 -3.409 0 0 0 
-46.342 0.669 -3.378 0 0 0 
-46.342 0.55 -3.4 0 0 0 
-46.342 0.067 -3.443 0 0 0 
-46.331 0.059 -3.036 0 0 0 
-5.336 0.079 -2.807 0 0 0 
-4.975 0.055 -2.843 0 0 0 
-4.967 0.056 -2.896 0 0 0 
-4.959 0.083 -2.949 0 0 0 
-4.959 0.057 -2.95 0 0 0 
-4.95 0.058 -3.003 0 0 0 
-4.941 0.06 -3.057 0 0 0 
-4.886 0.068 -3.517 0 0 0 
-4.897 0.066 -3.397 0 0 0 
-4.931 0.061 -3.11 0 0 0 
-4.928 0.062 -3.17 0 0 0 
-4.914 0.064 -3.283 0 0 0 
-4.917 0.063 -3.223 0 0 0 
-4.902 0.065 -3.337 0 0 0 
-4.884 0.067 -3.451 0 0 0 
-4.884 0.098 -3.45 0 0 0 
-4.914 0.093 -3.282 0 0 0 
-4.932 0.086 -3.051 0 0 0 
-4.95 0.085 -3.002 0 0 0 
-4.931 0.088 -3.11 0 0 0 
-4.92 0.09 -3.163 0 0 0 
-4.917 0.091 -3.223 0 0 0 
-4.902 0.094 -3.336 0 0 0 
-4.897 0.096 -3.396 0 0 0 
-4.878 0.099 -3.51 0 0 0 
-4.967 0.082 -2.896 0 0 0 
-4.966 0.08 -2.837 0 0 0 
-5.336 0.055 -2.807 0 0 0 
-5.188 0.079 -2.787 0 0 0 
-5.188 0.054 -2.787 0 0 0 
-4.982 0.079 -2.789 0 0 0 
-4.982 0.103 -2.788 0 0 0 
-4.982 0.054 -2.789 0 0 0 
-5.05 0.054 -2.77 0 0 0 
-5.05 0.078 -2.769 0 0 0 
-5.041 0.103 -2.764 0 0 0 
-5.18 0.103 -2.781 0 0 0 
-5.345 0.104 -2.81 0 0 0 
-4.95 0.111 -3.002 0 0 0 
-4.932 0.113 -3.05 0 0 0 
-4.959 0.109 -2.948 0 0 0 
-4.966 0.105 -2.836 0 0 0 
-4.958 0.107 -2.89 0 0 0 
-46.335 0.051 -2.631 0 0 0 
-46.337 0.102 -2.223 0 0 0 
-46.337 0.083 -2.224 0 0 0 
-46.317 0.043 -2.224 0 0 0 
39.516 0.044 -2.243 0 0 0 
34.236 0.05 -2.544 0 0 0 
39.516 0.063 -2.243 0 0 0 
-46.324 0.052 -1.819 0 0 0 
-46.3 0.04 0.198 0 0 0 
6.613 0.042 -1.496 0 0 0 
6.596 0.041 -1.432 0 0 0 
-46.25 0.039 -0.198 0 0 0 
6.573 0.04 -1.07 0 0 0 
-46.26 0.041 -0.198 0 0 0 
6.589 0.039 -1.37 0 0 0 
6.8 0.039 -1.046 0 0 0 
6.554 0.042 -1.125 0 0 0 
6.573 0.044 -1.188 0 0 0 
6.573 0.055 -1.187 0 0 0 
6.581 0.06 -1.308 0 0 0 
6.581 0.049 -1.308 0 0 0 
6.63 0.048 -1.683 0 0 0 
6.634 0.049 -1.746 0 0 0 
6.647 0.051 -1.812 0 0 0 
6.615 0.046 -1.618 0 0 0 
6.582 0.046 -1.249 0 0 0 
6.589 0.051 -1.37 0 0 0 
6.619 0.044 -1.558 0 0 0 
6.596 0.053 -1.431 0 0 0 
6.625 0.06 -1.62 0 0 0 
6.63 0.062 -1.683 0 0 0 
6.619 0.058 -1.557 0 0 0 
6.582 0.057 -1.248 0 0 0 
6.589 0.063 -1.369 0 0 0 
6.613 0.056 -1.495 0 0 0 
6.554 0.052 -1.125 0 0 0 
-46.25 0.05 -0.196 0 0 0 
-46.25 0.044 -0.197 0 0 0 
-46.23 0.048 -0.196 0 0 0 
-46.26 0.046 -0.196 0 0 0 
-46.29 0.05 0.196 0 0 0 
-46.27 0.053 -0.195 0 0 0 
-46.26 0.056 -0.194 0 0 0 
-46.26 0.06 -0.193 0 0 0 
-46.26 0.062 -0.192 0 0 0 
-46.26 0.058 -0.193 0 0 0 
6.554 0.062 -1.124 0 0 0 
6.81 0.048 -1.047 0 0 0 
6.564 0.049 -1.068 0 0 0 
6.564 0.058 -1.067 0 0 0 
6.8 0.057 -1.045 0 0 0 
-46.327 0.063 -2.224 0 0 0 
-46.325 0.074 -2.629 0 0 0 
-46.314 0.067 -1.818 0 0 0 
6.554 0.071 -1.124 0 0 0 
6.573 0.065 -1.187 0 0 0 
6.581 0.072 -1.307 0 0 0 
6.634 0.065 -1.745 0 0 0 
6.647 0.067 -1.811 0 0 0 
6.603 0.069 -1.493 0 0 0 
6.582 0.068 -1.248 0 0 0 
6.596 0.066 -1.431 0 0 0 
6.609 0.071 -1.555 0 0 0 
6.615 0.074 -1.617 0 0 0 
6.589 0.075 -1.368 0 0 0 
6.564 0.068 -1.067 0 0 0 
6.79 0.075 -1.042 0 0 0 
6.81 0.066 -1.046 0 0 0 
6.564 0.075 -1.184 0 0 0 
-46.3 0.065 -0.191 0 0 0 
-46.3 0.07 -0.19 0 0 0 
-46.31 0.075 -0.188 0 0 0 
-46.264 0.083 -1.816 0 0 0 
39.516 0.083 -2.242 0 0 0 
39.526 0.103 -2.242 0 0 0 
-46.284 0.099 -1.816 0 0 0 
-46.26 0.088 -0.182 0 0 0 
-46.26 0.089 -0.181 0 0 0 
6.554 0.091 -1.122 0 0 0 
6.554 0.101 -1.122 0 0 0 
-46.27 0.093 -0.179 0 0 0 
-46.28 0.1 -0.175 0 0 0 
-46.27 0.102 -0.174 0 0 0 
6.554 0.111 -1.121 0 0 0 
6.554 0.081 -1.123 0 0 0 
6.596 0.078 -1.43 0 0 0 
6.63 0.077 -1.682 0 0 0 
6.634 0.08 -1.745 0 0 0 
6.647 0.083 -1.81 0 0 0 
6.613 0.082 -1.494 0 0 0 
6.619 0.085 -1.556 0 0 0 
6.581 0.083 -1.306 0 0 0 
6.573 0.077 -1.068 0 0 0 
6.582 0.079 -1.247 0 0 0 
6.8 0.085 -1.043 0 0 0 
6.564 0.086 -1.184 0 0 0 
6.573 0.101 -1.244 0 0 0 
6.581 0.106 -1.305 0 0 0 
6.573 0.112 -1.243 0 0 0 
6.581 0.095 -1.306 0 0 0 
6.615 0.089 -1.616 0 0 0 
6.582 0.09 -1.246 0 0 0 
6.589 0.087 -1.368 0 0 0 
6.596 0.091 -1.429 0 0 0 
6.613 0.095 -1.493 0 0 0 
6.613 0.108 -1.492 0 0 0 
6.619 0.113 -1.554 0 0 0 
6.619 0.099 -1.555 0 0 0 
6.644 0.096 -1.746 0 0 0 
6.647 0.099 -1.81 0 0 0 
6.63 0.092 -1.681 0 0 0 
6.625 0.103 -1.618 0 0 0 
6.644 0.111 -1.746 0 0 0 
6.63 0.107 -1.68 0 0 0 
6.606 0.104 -1.431 0 0 0 
6.599 0.111 -1.368 0 0 0 
6.599 0.099 -1.369 0 0 0 
6.564 0.096 -1.183 0 0 0 
6.564 0.107 -1.182 0 0 0 
6.573 0.087 -1.067 0 0 0 
6.573 0.096 -1.066 0 0 0 
6.573 0.105 -1.065 0 0 0 
6.79 0.094 -1.041 0 0 0 
6.79 0.103 -1.04 0 0 0 
6.79 0.112 -1.039 0 0 0 
-46.341 0.113 -3.035 0 0 0 
-46.33 0.132 -0.153 0 0 0 
-46.341 0.273 -3.025 0 0 0 
-46.341 0.326 -3.02 0 0 0 
-46.341 0.379 -3.014 0 0 0 
-46.341 0.405 -3.01 0 0 0 
-46.341 0.511 -2.994 0 0 0 
-46.341 0.538 -2.989 0 0 0 
-46.341 0.643 -2.969 0 0 0 
-46.341 0.669 -2.963 0 0 0 
-46.341 0.721 -2.951 0 0 0 
-46.341 0.747 -2.944 0 0 0 
-46.341 0.85 -2.916 0 0 0 
-46.341 0.695 -2.957 0 0 0 
-46.341 0.564 -2.985 0 0 0 
-46.341 0.432 -3.006 0 0 0 
-46.341 0.352 -3.017 0 0 0 
-46.341 0.193 -3.031 0 0 0 
-46.34 0.211 -3.845 0 0 0 
-46.34 0.346 -3.835 0 0 0 
-46.337 0.413 -2.187 0 0 0 
-46.34 0.514 -3.816 0 0 0 
-46.337 0.528 -2.162 0 0 0 
-46.337 0.604 -2.142 0 0 0 
-46.337 0.547 -2.157 0 0 0 
-46.34 0.615 -3.801 0 0 0 
-46.34 0.748 -3.777 0 0 0 
-46.337 0.66 -2.126 0 0 0 
-46.337 0.697 -2.114 0 0 0 
-46.337 0.716 -2.107 0 0 0 
-46.337 0.771 -2.088 0 0 0 
-46.337 0.88 -2.044 0 0 0 
-46.337 1.039 -1.969 0 0 0 
-46.337 0.933 -2.02 0 0 0 
-46.337 0.753 -2.095 0 0 0 
-46.337 0.679 -2.12 0 0 0 
-46.337 0.471 -2.175 0 0 0 
-46.337 0.219 -2.215 0 0 0 
-46.335 0.213 -2.622 0 0 0 
-46.331 0.458 -3.002 0 0 0 
-46.331 0.485 -2.998 0 0 0 
-46.332 0.52 -3.404 0 0 0 
-46.332 0.579 -3.394 0 0 0 
-46.331 1.102 -2.83 0 0 0 
-46.331 0.299 -3.022 0 0 0 
-46.335 0.236 -2.62 0 0 0 
-46.335 0.351 -2.608 0 0 0 
-46.335 0.397 -2.601 0 0 0 
-46.335 0.488 -2.585 0 0 0 
-46.335 0.557 -2.572 0 0 0 
-46.335 0.624 -2.556 0 0 0 
-46.335 0.647 -2.55 0 0 0 
-46.335 0.78 -2.513 0 0 0 
-46.335 0.802 -2.506 0 0 0 
-46.335 0.955 -2.452 0 0 0 
-46.335 1.019 -2.426 0 0 0 
-46.335 1.082 -2.398 0 0 0 
-46.335 1.04 -2.417 0 0 0 
-46.335 0.846 -2.491 0 0 0 
-46.335 0.736 -2.526 0 0 0 
-46.335 0.602 -2.561 0 0 0 
-46.335 0.466 -2.59 0 0 0 
-46.335 0.282 -2.616 0 0 0 
-46.334 0.463 -1.761 0 0 0 
-46.332 3.07 -1.559 0 0 0 
-46.331 2.631 -1.516 0 0 0 
-46.33 0.139 -0.147 0 0 0 
-46.33 0.128 -0.156 0 0 0 
-4.931 0.115 -3.109 0 0 0 
-4.928 0.118 -3.168 0 0 0 
-4.917 0.12 -3.222 0 0 0 
-4.914 0.122 -3.281 0 0 0 
-46.274 0.115 -1.814 0 0 0 
6.554 0.121 -1.12 0 0 0 
6.596 0.116 -1.427 0 0 0 
6.647 0.115 -1.809 0 0 0 
6.615 0.117 -1.614 0 0 0 
6.581 0.117 -1.304 0 0 0 
6.573 0.115 -1.064 0 0 0 
6.564 0.117 -1.181 0 0 0 
6.63 0.122 -1.679 0 0 0 
6.613 0.121 -1.491 0 0 0 
6.79 0.121 -1.038 0 0 0 
-46.327 0.122 -2.222 0 0 0 
-46.327 0.141 -2.221 0 0 0 
-46.325 0.167 -2.625 0 0 0 
-46.327 0.18 -2.218 0 0 0 
-46.327 0.239 -2.212 0 0 0 
-46.327 0.374 -2.193 0 0 0 
-46.327 0.432 -2.183 0 0 0 
-46.327 0.622 -2.136 0 0 0 
-46.327 0.641 -2.131 0 0 0 
-46.327 0.844 -2.059 0 0 0 
-46.327 0.898 -2.036 0 0 0 
-46.327 0.916 -2.028 0 0 0 
-46.327 0.734 -2.101 0 0 0 
-46.327 0.585 -2.147 0 0 0 
-46.327 0.258 -2.21 0 0 0 
-46.327 0.161 -2.219 0 0 0 
-46.325 0.19 -2.624 0 0 0 
-46.325 0.305 -2.613 0 0 0 
-46.326 0.506 -0.335 0 0 0 
-46.326 0.512 -0.326 0 0 0 
-46.325 0.534 -2.576 0 0 0 
-46.325 0.691 -2.538 0 0 0 
-46.325 0.997 -2.434 0 0 0 
-46.325 0.328 -2.61 0 0 0 
-46.325 0.144 -2.627 0 0 0 
-46.264 0.147 -1.812 0 0 0 
-46.264 0.131 -1.813 0 0 0 
-4.982 0.128 -2.787 0 0 0 
-4.897 0.126 -3.395 0 0 0 
-4.91 0.124 -3.341 0 0 0 
-4.892 0.128 -3.455 0 0 0 
-5.18 0.128 -2.78 0 0 0 
-5.032 0.127 -2.758 0 0 0 
39.526 0.123 -2.241 0 0 0 
-5.336 0.129 -2.805 0 0 0 
-4.967 0.133 -2.894 0 0 0 
-4.878 0.13 -3.509 0 0 0 
-4.966 0.13 -2.835 0 0 0 
-4.959 0.135 -2.947 0 0 0 
-4.95 0.138 -3.001 0 0 0 
-4.95 0.164 -2.999 0 0 0 
-4.941 0.167 -3.053 0 0 0 
-4.941 0.194 -3.051 0 0 0 
-4.95 0.191 -2.998 0 0 0 
-4.941 0.14 -3.054 0 0 0 
-4.884 0.158 -3.448 0 0 0 
-4.914 0.151 -3.28 0 0 0 
-4.931 0.143 -3.108 0 0 0 
-4.928 0.145 -3.167 0 0 0 
-4.917 0.148 -3.221 0 0 0 
-4.902 0.153 -3.334 0 0 0 
-4.897 0.156 -3.394 0 0 0 
-4.878 0.161 -3.508 0 0 0 
-4.869 0.192 -3.5 0 0 0 
-4.906 0.179 -3.273 0 0 0 
-4.931 0.17 -3.106 0 0 0 
-4.928 0.173 -3.165 0 0 0 
-4.917 0.176 -3.219 0 0 0 
-4.91 0.183 -3.338 0 0 0 
-4.897 0.186 -3.392 0 0 0 
-4.931 0.197 -3.105 0 0 0 
-4.884 0.189 -3.446 0 0 0 
-4.959 0.187 -2.944 0 0 0 
-4.966 0.155 -2.834 0 0 0 
-4.966 0.18 -2.833 0 0 0 
-4.958 0.183 -2.886 0 0 0 
-4.958 0.158 -2.887 0 0 0 
-4.95 0.161 -2.941 0 0 0 
-5.336 0.154 -2.803 0 0 0 
-5.336 0.178 -2.802 0 0 0 
-4.973 0.152 -2.781 0 0 0 
-5.041 0.151 -2.762 0 0 0 
6.651 0.135 -1.871 0 0 0 
39.536 0.142 -2.241 0 0 0 
-5.18 0.152 -2.779 0 0 0 
-4.982 0.177 -2.784 0 0 0 
-5.18 0.177 -2.778 0 0 0 
-5.05 0.2 -2.763 0 0 0 
-5.05 0.176 -2.765 0 0 0 
39.506 0.182 -2.236 0 0 0 
39.516 0.162 -2.238 0 0 0 
6.699 0.153 -1.883 0 0 0 
6.641 0.185 -1.864 0 0 0 
-46.274 0.163 -1.811 0 0 0 
-46.274 0.195 -1.808 0 0 0 
6.564 0.138 -1.179 0 0 0 
6.564 0.148 -1.178 0 0 0 
6.564 0.141 -1.119 0 0 0 
6.564 0.179 -1.173 0 0 0 
6.564 0.169 -1.175 0 0 0 
6.564 0.127 -1.18 0 0 0 
6.619 0.126 -1.553 0 0 0 
6.634 0.126 -1.742 0 0 0 
6.596 0.129 -1.426 0 0 0 
6.573 0.123 -1.242 0 0 0 
6.589 0.123 -1.365 0 0 0 
6.581 0.129 -1.303 0 0 0 
6.606 0.166 -1.425 0 0 0 
6.606 0.154 -1.426 0 0 0 
6.625 0.131 -1.616 0 0 0 
6.647 0.131 -1.808 0 0 0 
6.63 0.136 -1.678 0 0 0 
6.644 0.142 -1.743 0 0 0 
6.644 0.157 -1.742 0 0 0 
6.647 0.147 -1.806 0 0 0 
6.63 0.151 -1.677 0 0 0 
6.634 0.146 -1.617 0 0 0 
6.619 0.14 -1.552 0 0 0 
6.613 0.134 -1.49 0 0 0 
6.613 0.147 -1.489 0 0 0 
6.619 0.154 -1.551 0 0 0 
6.615 0.159 -1.611 0 0 0 
6.625 0.174 -1.612 0 0 0 
6.647 0.163 -1.805 0 0 0 
6.63 0.166 -1.675 0 0 0 
6.647 0.179 -1.803 0 0 0 
6.634 0.172 -1.738 0 0 0 
6.619 0.167 -1.55 0 0 0 
6.613 0.174 -1.486 0 0 0 
6.613 0.16 -1.488 0 0 0 
6.596 0.141 -1.425 0 0 0 
6.599 0.147 -1.365 0 0 0 
6.599 0.159 -1.363 0 0 0 
6.599 0.135 -1.366 0 0 0 
6.591 0.141 -1.303 0 0 0 
6.573 0.134 -1.241 0 0 0 
6.573 0.156 -1.238 0 0 0 
6.573 0.159 -1.178 0 0 0 
6.573 0.145 -1.239 0 0 0 
6.591 0.164 -1.301 0 0 0 
6.573 0.167 -1.237 0 0 0 
6.591 0.152 -1.302 0 0 0 
6.589 0.171 -1.36 0 0 0 
6.591 0.175 -1.299 0 0 0 
6.573 0.177 -1.235 0 0 0 
6.606 0.179 -1.423 0 0 0 
6.554 0.131 -1.119 0 0 0 
6.564 0.16 -1.116 0 0 0 
6.564 0.17 -1.115 0 0 0 
6.564 0.151 -1.118 0 0 0 
6.583 0.124 -1.065 0 0 0 
6.583 0.134 -1.064 0 0 0 
6.8 0.131 -1.038 0 0 0 
6.79 0.139 -1.036 0 0 0 
6.573 0.143 -1.061 0 0 0 
6.583 0.152 -1.061 0 0 0 
6.583 0.171 -1.058 0 0 0 
6.583 0.162 -1.06 0 0 0 
6.8 0.149 -1.036 0 0 0 
6.81 0.158 -1.036 0 0 0 
6.81 0.176 -1.033 0 0 0 
6.81 0.167 -1.035 0 0 0 
-46.264 0.179 -1.809 0 0 0 
6.564 0.18 -1.113 0 0 0 
6.564 0.19 -1.112 0 0 0 
6.564 0.189 -1.172 0 0 0 
6.625 0.188 -1.61 0 0 0 
6.63 0.181 -1.674 0 0 0 
6.644 0.188 -1.739 0 0 0 
6.619 0.181 -1.548 0 0 0 
6.599 0.183 -1.36 0 0 0 
6.591 0.186 -1.298 0 0 0 
6.573 0.188 -1.234 0 0 0 
6.613 0.187 -1.485 0 0 0 
6.606 0.191 -1.421 0 0 0 
6.639 0.196 -1.675 0 0 0 
6.647 0.194 -1.802 0 0 0 
6.619 0.194 -1.546 0 0 0 
6.599 0.195 -1.359 0 0 0 
6.591 0.198 -1.296 0 0 0 
6.573 0.199 -1.232 0 0 0 
6.573 0.2 -1.172 0 0 0 
6.613 0.2 -1.483 0 0 0 
6.554 0.199 -1.108 0 0 0 
6.583 0.18 -1.057 0 0 0 
6.82 0.186 -1.033 0 0 0 
6.593 0.19 -1.057 0 0 0 
6.593 0.199 -1.055 0 0 0 
6.82 0.195 -1.031 0 0 0 
-46.317 0.2 -2.216 0 0 0 
-46.322 0.459 -3.412 0 0 0 
-4.937 0.507 -3.135 0 0 0 
-4.937 0.534 -3.13 0 0 0 
-4.937 0.479 -3.139 0 0 0 
-4.903 0.386 -3.574 0 0 0 
-4.897 0.245 -3.388 0 0 0 
-4.897 0.275 -3.386 0 0 0 
-4.897 0.216 -3.39 0 0 0 
-4.91 0.212 -3.336 0 0 0 
-4.914 0.208 -3.277 0 0 0 
-4.928 0.201 -3.164 0 0 0 
-4.917 0.205 -3.217 0 0 0 
-4.917 0.233 -3.216 0 0 0 
-4.931 0.225 -3.103 0 0 0 
-4.928 0.229 -3.162 0 0 0 
-4.928 0.257 -3.16 0 0 0 
-4.931 0.252 -3.101 0 0 0 
-4.917 0.261 -3.213 0 0 0 
-4.914 0.266 -3.273 0 0 0 
-4.906 0.237 -3.269 0 0 0 
-4.902 0.27 -3.326 0 0 0 
-4.931 0.279 -3.098 0 0 0 
-4.902 0.241 -3.329 0 0 0 
-4.892 0.28 -3.446 0 0 0 
-4.892 0.341 -3.44 0 0 0 
-4.902 0.299 -3.324 0 0 0 
-4.897 0.364 -3.378 0 0 0 
-4.897 0.394 -3.374 0 0 0 
-4.897 0.335 -3.381 0 0 0 
-4.91 0.359 -3.324 0 0 0 
-4.917 0.289 -3.211 0 0 0 
-4.917 0.318 -3.208 0 0 0 
-4.914 0.324 -3.267 0 0 0 
-4.914 0.352 -3.264 0 0 0 
-4.914 0.381 -3.261 0 0 0 
-4.914 0.295 -3.27 0 0 0 
-4.926 0.375 -3.208 0 0 0 
-4.928 0.284 -3.157 0 0 0 
-4.928 0.312 -3.155 0 0 0 
-4.928 0.368 -3.149 0 0 0 
-4.928 0.34 -3.152 0 0 0 
-4.917 0.346 -3.205 0 0 0 
-4.902 0.387 -3.315 0 0 0 
-4.928 0.395 -3.145 0 0 0 
-4.902 0.329 -3.321 0 0 0 
-4.892 0.401 -3.434 0 0 0 
-4.897 0.453 -3.367 0 0 0 
-4.897 0.424 -3.371 0 0 0 
-4.91 0.417 -3.317 0 0 0 
-4.926 0.403 -3.204 0 0 0 
-4.914 0.438 -3.254 0 0 0 
-4.914 0.41 -3.258 0 0 0 
-4.926 0.431 -3.201 0 0 0 
-4.928 0.451 -3.138 0 0 0 
-4.928 0.423 -3.142 0 0 0 
-4.91 0.446 -3.313 0 0 0 
-4.892 0.371 -3.437 0 0 0 
-4.889 0.304 -3.378 0 0 0 
-4.887 0.447 -3.555 0 0 0 
-4.879 0.415 -3.553 0 0 0 
-4.869 0.222 -3.498 0 0 0 
-4.869 0.253 -3.496 0 0 0 
-4.869 0.284 -3.494 0 0 0 
-4.878 0.346 -3.494 0 0 0 
-4.884 0.219 -3.444 0 0 0 
-4.884 0.249 -3.442 0 0 0 
-4.884 0.431 -3.424 0 0 0 
-4.884 0.31 -3.437 0 0 0 
-4.878 0.407 -3.488 0 0 0 
-4.869 0.315 -3.491 0 0 0 
-4.869 0.376 -3.485 0 0 0 
-4.886 0.439 -3.49 0 0 0 
-4.934 0.46 -3.202 0 0 0 
-4.922 0.496 -3.251 0 0 0 
-4.922 0.553 -3.242 0 0 0 
-4.922 0.525 -3.247 0 0 0 
-4.918 0.563 -3.301 0 0 0 
-4.918 0.534 -3.306 0 0 0 
-4.886 0.469 -3.486 0 0 0 
-4.914 0.467 -3.25 0 0 0 
-4.91 0.475 -3.309 0 0 0 
-4.884 0.461 -3.42 0 0 0 
-4.887 0.478 -3.551 0 0 0 
-4.895 0.542 -3.548 0 0 0 
-4.887 0.51 -3.547 0 0 0 
-4.897 0.513 -3.358 0 0 0 
-4.897 0.483 -3.363 0 0 0 
-4.91 0.504 -3.305 0 0 0 
-4.892 0.522 -3.418 0 0 0 
-4.892 0.552 -3.413 0 0 0 
-4.905 0.543 -3.359 0 0 0 
-4.892 0.492 -3.422 0 0 0 
-4.878 0.499 -3.476 0 0 0 
-4.886 0.531 -3.477 0 0 0 
-4.886 0.561 -3.472 0 0 0 
-4.934 0.516 -3.193 0 0 0 
-4.934 0.544 -3.189 0 0 0 
-4.926 0.487 -3.192 0 0 0 
-4.939 0.334 -3.098 0 0 0 
-4.941 0.248 -3.047 0 0 0 
-4.941 0.274 -3.045 0 0 0 
-4.941 0.301 -3.042 0 0 0 
-4.941 0.221 -3.049 0 0 0 
-4.949 0.355 -3.042 0 0 0 
-4.949 0.382 -3.039 0 0 0 
-4.941 0.328 -3.04 0 0 0 
-4.939 0.389 -3.092 0 0 0 
-4.939 0.416 -3.088 0 0 0 
-4.949 0.409 -3.035 0 0 0 
-4.939 0.47 -3.081 0 0 0 
-4.939 0.497 -3.076 0 0 0 
-4.948 0.552 -3.072 0 0 0 
-4.939 0.524 -3.072 0 0 0 
-4.939 0.443 -3.085 0 0 0 
-4.939 0.362 -3.095 0 0 0 
-4.931 0.307 -3.096 0 0 0 
-4.945 0.563 -3.131 0 0 0 
-4.937 0.617 -3.115 0 0 0 
-4.942 0.797 -3.141 0 0 0 
-42.055 1.493 -3.159 0 0 0 
-42.087 1.811 -3.831 0 0 0 
-42.078 2.567 -3.827 0 0 0 
-42.078 2.533 -3.849 0 0 0 
-42.087 1.845 -3.815 0 0 0 
-42.077 1.911 -3.782 0 0 0 
-42.078 2.634 -3.781 0 0 0 
-42.078 2.601 -3.804 0 0 0 
-42.087 1.945 -3.765 0 0 0 
-42.077 2.01 -3.73 0 0 0 
-42.088 2.668 -3.759 0 0 0 
-42.077 2.043 -3.712 0 0 0 
-42.077 2.235 -3.599 0 0 0 
-42.077 2.267 -3.58 0 0 0 
-42.077 2.204 -3.619 0 0 0 
-42.077 1.977 -3.747 0 0 0 
-42.077 1.878 -3.798 0 0 0 
-42.067 2.298 -3.559 0 0 0 
-42.067 1.777 -3.845 0 0 0 
-42.073 1.528 -3.551 0 0 0 
-42.073 1.56 -3.537 0 0 0 
-42.087 2.33 -3.54 0 0 0 
-42.083 1.591 -3.524 0 0 0 
-42.083 1.834 -3.404 0 0 0 
-42.097 2.514 -3.413 0 0 0 
-42.087 2.422 -3.477 0 0 0 
-42.087 2.453 -3.456 0 0 0 
-42.083 1.864 -3.388 0 0 0 
-42.083 2.21 -3.173 0 0 0 
-42.107 2.574 -3.369 0 0 0 
-42.083 2.238 -3.153 0 0 0 
-42.083 1.894 -3.371 0 0 0 
-42.083 1.683 -3.481 0 0 0 
-42.073 1.744 -3.45 0 0 0 
-42.077 2.391 -3.498 0 0 0 
-42.077 2.36 -3.519 0 0 0 
-42.073 1.774 -3.435 0 0 0 
-42.073 1.923 -3.354 0 0 0 
-42.077 2.542 -3.389 0 0 0 
-42.073 2.097 -3.248 0 0 0 
-42.073 2.154 -3.211 0 0 0 
-42.073 2.125 -3.229 0 0 0 
-42.073 1.804 -3.419 0 0 0 
-42.067 2.482 -3.433 0 0 0 
-42.065 1.521 -3.147 0 0 0 
-42.063 1.621 -3.509 0 0 0 
-42.063 1.713 -3.465 0 0 0 
-42.063 2.181 -3.191 0 0 0 
-42.063 1.952 -3.336 0 0 0 
-42.055 1.466 -3.172 0 0 0 
-14.91 1.173 -3.455 0 0 0 
-22.328 1.432 -3.775 0 0 0 
-21.594 1.487 -3.82 0 0 0 
-21.575 1.453 -3.83 0 0 0 
-21.309 1.334 -3.819 0 0 0 
-21.417 1.409 -3.814 0 0 0 
-21.486 1.513 -3.788 0 0 0 
-21.309 1.368 -3.807 0 0 0 
-14.97 1.526 -3.634 0 0 0 
-21.496 1.547 -3.777 0 0 0 
-14.983 1.615 -3.752 0 0 0 
-21.349 1.57 -3.737 0 0 0 
-21.339 1.634 -3.707 0 0 0 
-21.241 1.594 -3.704 0 0 0 
-14.964 1.646 -3.733 0 0 0 
-21.275 1.269 -3.632 0 0 0 
-21.334 1.336 -3.619 0 0 0 
-21.078 1.383 -3.552 0 0 0 
-21.019 1.441 -3.517 0 0 0 
-21.108 1.478 -3.519 0 0 0 
-21.177 1.514 -3.517 0 0 0 
-21.019 1.41 -3.53 0 0 0 
-21.186 1.545 -3.506 0 0 0 
-15.159 1.615 -3.495 0 0 0 
-14.941 1.555 -3.613 0 0 0 
-14.941 1.587 -3.599 0 0 0 
-15.009 1.626 -3.602 0 0 0 
-21.196 1.577 -3.493 0 0 0 
-21.186 1.607 -3.478 0 0 0 
-14.881 1.141 -3.458 0 0 0 
-14.554 1.007 -3.697 0 0 0 
-14.573 1.041 -3.693 0 0 0 
-14.593 1.075 -3.689 0 0 0 
-14.461 0.996 -3.535 0 0 0 
-14.529 1.094 -3.524 0 0 0 
-14.422 1.024 -3.517 0 0 0 
-14.471 1.059 -3.519 0 0 0 
-14.554 1.104 -3.669 0 0 0 
-14.862 1.109 -3.463 0 0 0 
-14.82 1.335 -3.519 0 0 0 
-14.867 1.57 -3.737 0 0 0 
-14.805 1.478 -3.607 0 0 0 
-14.8 1.364 -3.503 0 0 0 
-14.8 1.425 -3.478 0 0 0 
-14.79 1.393 -3.488 0 0 0 
-14.79 1.229 -3.84 0 0 0 
-14.577 1.16 -3.516 0 0 0 
-14.486 1.163 -3.632 0 0 0 
-14.486 1.131 -3.642 0 0 0 
-4.975 1.185 -3.593 0 0 0 
-14.538 1.126 -3.516 0 0 0 
-14.684 1.199 -3.531 0 0 0 
-14.742 1.259 -3.817 0 0 0 
-14.786 1.284 -3.675 0 0 0 
-14.718 1.246 -3.669 0 0 0 
-14.312 1.231 -3.844 0 0 0 
-14.612 1.205 -3.653 0 0 0 
-14.35 1.268 -3.844 0 0 0 
-14.504 1.417 -3.837 0 0 0 
-14.658 1.534 -3.839 0 0 0 
-14.485 1.381 -3.845 0 0 0 
-11.221 1.637 -3.802 0 0 0 
-14.597 1.28 -3.768 0 0 0 
-14.622 1.302 -3.623 0 0 0 
-14.539 1.308 -3.742 0 0 0 
-14.617 1.413 -3.726 0 0 0 
-14.51 1.338 -3.723 0 0 0 
-11.332 1.575 -3.751 0 0 0 
-11.285 1.536 -3.749 0 0 0 
-14.549 1.374 -3.721 0 0 0 
-14.593 1.425 -3.568 0 0 0 
-14.588 1.443 -3.706 0 0 0 
-14.617 1.511 -3.687 0 0 0 
-14.53 1.47 -3.679 0 0 0 
-14.525 1.356 -3.576 0 0 0 
-14.515 1.324 -3.585 0 0 0 
-11.115 1.48 -3.706 0 0 0 
-14.506 1.386 -3.559 0 0 0 
-14.684 1.23 -3.521 0 0 0 
-14.752 1.298 -3.515 0 0 0 
-14.771 1.453 -3.459 0 0 0 
-14.664 1.259 -3.505 0 0 0 
-14.871 1.2 -3.435 0 0 0 
-14.842 1.258 -3.407 0 0 0 
-14.871 1.29 -3.402 0 0 0 
-14.813 1.226 -3.411 0 0 0 
-14.703 1.476 -3.43 0 0 0 
-14.713 1.507 -3.419 0 0 0 
-14.761 1.542 -3.417 0 0 0 
-15.126 1.056 -3.402 0 0 0 
-15.029 1.079 -3.37 0 0 0 
-14.883 1.098 -3.328 0 0 0 
-14.883 1.156 -3.308 0 0 0 
-14.883 1.185 -3.298 0 0 0 
-14.844 1.124 -3.31 0 0 0 
-4.943 1.138 -3.167 0 0 0 
-4.943 1.166 -3.157 0 0 0 
-4.943 1.193 -3.147 0 0 0 
-14.932 1.218 -3.298 0 0 0 
-14.862 1.319 -3.389 0 0 0 
-14.813 1.345 -3.366 0 0 0 
-14.716 1.365 -3.332 0 0 0 
-14.638 1.445 -3.278 0 0 0 
-14.638 1.387 -3.302 0 0 0 
-14.628 1.415 -3.288 0 0 0 
-14.864 1.241 -3.272 0 0 0 
-14.698 1.256 -3.225 0 0 0 
-4.951 1.223 -3.142 0 0 0 
-14.649 1.28 -3.203 0 0 0 
-14.658 1.504 -3.256 0 0 0 
-14.658 1.476 -3.269 0 0 0 
-14.609 1.528 -3.232 0 0 0 
-14.659 1.309 -3.194 0 0 0 
-14.679 1.338 -3.187 0 0 0 
-4.946 1.357 -3.152 0 0 0 
-14.669 1.366 -3.173 0 0 0 
-4.949 1.467 -3.175 0 0 0 
-4.942 1.633 -3.161 0 0 0 
-14.63 1.39 -3.152 0 0 0 
-14.669 1.449 -3.136 0 0 0 
-14.62 1.416 -3.138 0 0 0 
-4.946 1.384 -3.14 0 0 0 
-4.949 1.55 -3.135 0 0 0 
-42.033 1.651 -3.492 0 0 0 
-21.428 6.951 -3.765 0 0 0 
-21.572 6.778 -3.748 0 0 0 
-24.094 6.953 -3.845 0 0 0 
-24.103 6.989 -3.785 0 0 0 
-21.503 7.009 -3.717 0 0 0 
-21.263 1.774 -3.84 0 0 0 
-14.908 1.696 -3.847 0 0 0 
-14.88 1.727 -3.825 0 0 0 
-14.87 1.759 -3.807 0 0 0 
-14.822 1.786 -3.779 0 0 0 
-14.916 1.673 -3.706 0 0 0 
-21.057 1.79 -3.787 0 0 0 
-20.051 1.881 -3.722 0 0 0 
-19.984 2.058 -3.82 0 0 0 
-20.178 1.926 -3.729 0 0 0 
-19.865 1.799 -3.72 0 0 0 
-14.754 1.811 -3.746 0 0 0 
-19.603 1.819 -3.848 0 0 0 
-19.828 1.942 -3.842 0 0 0 
-15.987 2.068 -3.837 0 0 0 
-16.525 2.63 -3.847 0 0 0 
-16.734 2.995 -3.85 0 0 0 
-16.602 2.676 -3.842 0 0 0 
-16.633 3.211 -3.841 0 0 0 
-16.479 2.337 -3.837 0 0 0 
-11.285 2.342 -3.845 0 0 0 
-11.35 2.389 -3.847 0 0 0 
