# .PCD v0.7 - Point Cloud Data file format
VERSION 0.7
FIELDS x y z r g b
SIZE 4 4 4 1 1 1
TYPE F F F I I I
COUNT 1 1 1 1 1 1
WIDTH 1728
HEIGHT 1
VIEWPOINT 0 0 0 1 0 0 0
POINTS 1728
DATA ascii
-3.179 -0.551 -0.782 0 0 0 
-3.245 -0.551 -0.769 0 0 0 
-3.272 -0.551 -0.741 0 0 0 
-3.207 -0.551 -0.755 0 0 0 
-3.224 -0.549 -0.725 0 0 0 
-3.195 -0.55 -0.714 0 0 0 
-3.251 -0.548 -0.697 0 0 0 
-3.213 -0.547 -0.684 0 0 0 
-3.259 -0.547 -0.661 0 0 0 
-3.266 -0.546 -0.625 0 0 0 
-3.237 -0.546 -0.614 0 0 0 
-3.254 -0.545 -0.581 0 0 0 
-3.261 -0.54 -0.546 0 0 0 
-3.232 -0.54 -0.537 0 0 0 
-3.22 -0.547 -0.648 0 0 0 
-3.208 -0.547 -0.604 0 0 0 
-3.205 -0.541 -0.567 0 0 0 
-3.201 -0.549 -0.639 0 0 0 
-3.172 -0.549 -0.629 0 0 0 
-3.189 -0.549 -0.596 0 0 0 
-3.184 -0.548 -0.673 0 0 0 
-3.176 -0.541 -0.558 0 0 0 
-3.169 -0.561 -1.097 0 0 0 
-2.942 -0.572 -1.093 0 0 0 
-3.008 -0.57 -1.091 0 0 0 
-3.076 -0.564 -1.055 0 0 0 
-3.114 -0.565 -1.036 0 0 0 
-3.067 -0.565 -1.015 0 0 0 
-3.132 -0.564 -1.079 0 0 0 
-3.151 -0.563 -1.053 0 0 0 
-3.153 -0.559 -0.984 0 0 0 
-3.134 -0.558 -0.942 0 0 0 
-3.142 -0.554 -0.803 0 0 0 
-3.15 -0.552 -0.771 0 0 0 
-3.165 -0.55 -0.664 0 0 0 
-3.159 -0.549 -0.739 0 0 0 
-3.16 -0.549 -0.585 0 0 0 
-3.157 -0.543 -0.549 0 0 0 
-3.153 -0.552 -0.62 0 0 0 
-3.136 -0.551 -0.653 0 0 0 
-3.13 -0.551 -0.727 0 0 0 
-3.147 -0.548 -0.698 0 0 0 
-3.128 -0.543 -0.54 0 0 0 
-3.125 -0.556 -0.868 0 0 0 
-3.124 -0.554 -0.833 0 0 0 
-3.124 -0.561 -1.007 0 0 0 
-3.087 -0.563 -0.99 0 0 0 
-3.106 -0.56 -0.965 0 0 0 
-3.087 -0.557 -0.887 0 0 0 
-3.115 -0.555 -0.9 0 0 0 
-3.107 -0.552 -0.643 0 0 0 
-3.103 -0.551 -0.754 0 0 0 
-3.114 -0.55 -0.608 0 0 0 
-3.109 -0.548 -0.685 0 0 0 
-3.111 -0.545 -0.572 0 0 0 
-3.094 -0.553 -0.786 0 0 0 
-3.087 -0.557 -0.923 0 0 0 
-3.077 -0.555 -0.85 0 0 0 
-3.086 -0.554 -0.818 0 0 0 
-3.085 -0.55 -0.597 0 0 0 
-3.082 -0.549 -0.711 0 0 0 
-3.08 -0.548 -0.674 0 0 0 
-3.08 -0.554 -0.669 0 0 0 
-3.074 -0.552 -0.742 0 0 0 
-3.068 -0.55 -0.63 0 0 0 
-3.072 -0.544 -0.56 0 0 0 
-3.065 -0.567 -1.084 0 0 0 
-2.869 -0.571 -1.026 0 0 0 
-2.823 -0.571 -1.004 0 0 0 
-2.962 -0.571 -1.069 0 0 0 
-2.886 -0.57 -1.068 0 0 0 
-3.048 -0.568 -1.04 0 0 0 
-3.03 -0.561 -0.967 0 0 0 
-3.059 -0.559 -0.945 0 0 0 
-3.049 -0.558 -0.907 0 0 0 
-3.04 -0.556 -0.869 0 0 0 
-3.058 -0.554 -0.623 0 0 0 
-3.056 -0.553 -0.771 0 0 0 
-3.053 -0.55 -0.7 0 0 0 
-3.051 -0.555 -0.658 0 0 0 
-3.039 -0.555 -0.834 0 0 0 
-3.048 -0.554 -0.803 0 0 0 
-3.046 -0.549 -0.585 0 0 0 
-3.045 -0.553 -0.731 0 0 0 
-3.037 -0.552 -0.578 0 0 0 
-3.043 -0.543 -0.55 0 0 0 
-3.028 -0.569 -1.066 0 0 0 
-2.981 -0.57 -1.044 0 0 0 
-2.935 -0.57 -1.023 0 0 0 
-2.84 -0.57 -1.046 0 0 0 
-2.897 -0.568 -1.04 0 0 0 
-3.011 -0.564 -0.992 0 0 0 
-3.012 -0.559 -0.926 0 0 0 
-3.022 -0.555 -0.647 0 0 0 
-3.027 -0.554 -0.759 0 0 0 
-3.024 -0.551 -0.688 0 0 0 
-3.02 -0.552 -0.61 0 0 0 
-3.014 -0.543 -0.54 0 0 0 
-3.011 -0.559 -0.856 0 0 0 
-3.002 -0.558 -0.888 0 0 0 
-3.001 -0.555 -0.819 0 0 0 
-3.01 -0.554 -0.788 0 0 0 
-3.001 -0.568 -1.02 0 0 0 
-2.879 -0.568 -0.999 0 0 0 
-2.954 -0.568 -0.999 0 0 0 
-2.88 -0.562 -0.969 0 0 0 
-2.955 -0.562 -0.968 0 0 0 
-2.999 -0.556 -0.747 0 0 0 
-2.995 -0.551 -0.677 0 0 0 
-2.997 -0.551 -0.714 0 0 0 
-2.986 -0.555 -0.67 0 0 0 
-2.993 -0.555 -0.636 0 0 0 
-3.0 -0.554 -0.602 0 0 0 
-2.983 -0.561 -0.947 0 0 0 
-2.918 -0.563 -0.951 0 0 0 
-2.833 -0.563 -0.914 0 0 0 
-2.843 -0.563 -0.951 0 0 0 
-2.946 -0.562 -0.93 0 0 0 
-2.899 -0.561 -0.911 0 0 0 
-2.936 -0.56 -0.859 0 0 0 
-2.936 -0.561 -0.893 0 0 0 
-2.974 -0.56 -0.909 0 0 0 
-2.889 -0.559 -0.874 0 0 0 
-2.964 -0.558 -0.872 0 0 0 
-2.967 -0.558 -0.661 0 0 0 
-2.964 -0.557 -0.838 0 0 0 
-2.973 -0.557 -0.807 0 0 0 
-2.971 -0.554 -0.773 0 0 0 
-2.943 -0.555 -0.761 0 0 0 
-2.968 -0.552 -0.703 0 0 0 
-2.969 -0.545 -0.561 0 0 0 
-2.962 -0.552 -0.589 0 0 0 
-2.94 -0.553 -0.691 0 0 0 
-2.951 -0.553 -0.73 0 0 0 
-2.945 -0.552 -0.621 0 0 0 
-2.949 -0.546 -0.552 0 0 0 
-2.935 -0.557 -0.791 0 0 0 
-2.926 -0.557 -0.822 0 0 0 
-2.922 -0.554 -0.718 0 0 0 
-2.905 -0.555 -0.746 0 0 0 
-2.892 -0.555 -0.67 0 0 0 
-2.901 -0.551 -0.677 0 0 0 
-2.928 -0.556 -0.648 0 0 0 
-2.93 -0.547 -0.544 0 0 0 
-2.926 -0.554 -0.612 0 0 0 
-2.89 -0.554 -0.634 0 0 0 
-2.897 -0.554 -0.601 0 0 0 
-2.904 -0.547 -0.573 0 0 0 
-2.889 -0.559 -0.84 0 0 0 
-2.873 -0.558 -0.661 0 0 0 
-2.888 -0.557 -0.807 0 0 0 
-2.887 -0.555 -0.774 0 0 0 
-2.884 -0.553 -0.704 0 0 0 
-2.885 -0.548 -0.564 0 0 0 
-2.876 -0.556 -0.734 0 0 0 
-2.868 -0.553 -0.59 0 0 0 
-2.862 -0.56 -0.928 0 0 0 
-2.824 -0.562 -0.877 0 0 0 
-2.824 -0.561 -0.844 0 0 0 
-2.852 -0.56 -0.857 0 0 0 
-2.843 -0.558 -0.888 0 0 0 
-2.851 -0.559 -0.824 0 0 0 
-2.848 -0.557 -0.722 0 0 0 
-2.85 -0.557 -0.791 0 0 0 
-2.859 -0.556 -0.761 0 0 0 
-2.861 -0.554 -0.623 0 0 0 
-2.856 -0.554 -0.692 0 0 0 
-2.846 -0.545 -0.552 0 0 0 
-2.84 -0.559 -0.751 0 0 0 
-2.834 -0.556 -0.647 0 0 0 
-2.832 -0.554 -0.612 0 0 0 
-2.839 -0.553 -0.579 0 0 0 
-2.819 -0.575 -1.099 0 0 0 
-2.773 -0.575 -1.076 0 0 0 
-2.784 -0.573 -1.05 0 0 0 
-2.814 -0.563 -0.971 0 0 0 
-2.813 -0.558 -0.808 0 0 0 
-2.817 -0.545 -0.542 0 0 0 
-2.817 -0.552 -0.678 0 0 0 
-2.813 -0.574 -1.03 0 0 0 
-2.757 -0.571 -1.005 0 0 0 
-2.767 -0.568 -0.979 0 0 0 
-2.796 -0.563 -0.897 0 0 0 
-2.796 -0.562 -0.931 0 0 0 
-2.777 -0.56 -0.858 0 0 0 
-2.793 -0.559 -0.766 0 0 0 
-2.812 -0.556 -0.776 0 0 0 
-2.802 -0.558 -0.736 0 0 0 
-2.808 -0.556 -0.671 0 0 0 
-2.806 -0.556 -0.636 0 0 0 
-2.803 -0.554 -0.601 0 0 0 
-2.8 -0.554 -0.705 0 0 0 
-2.791 -0.548 -0.565 0 0 0 
-2.786 -0.561 -0.828 0 0 0 
-2.785 -0.56 -0.795 0 0 0 
-2.781 -0.556 -0.695 0 0 0 
-2.779 -0.556 -0.66 0 0 0 
-2.777 -0.555 -0.625 0 0 0 
-2.777 -0.564 -0.953 0 0 0 
-2.768 -0.565 -0.917 0 0 0 
-2.759 -0.564 -0.88 0 0 0 
-2.775 -0.553 -0.59 0 0 0 
-2.772 -0.549 -0.556 0 0 0 
-2.765 -0.56 -0.753 0 0 0 
-2.76 -0.558 -0.65 0 0 0 
-2.764 -0.557 -0.722 0 0 0 
-2.752 -0.556 -0.683 0 0 0 
-2.752 -0.578 -1.129 0 0 0 
-2.619 -0.578 -1.155 0 0 0 
-2.507 -0.578 -1.154 0 0 0 
-2.63 -0.578 -1.129 0 0 0 
-2.574 -0.578 -1.13 0 0 0 
-2.585 -0.578 -1.105 0 0 0 
-2.493 -0.579 -1.085 0 0 0 
-2.377 -0.579 -1.019 0 0 0 
-2.225 -0.579 -0.904 0 0 0 
-2.206 -0.579 -0.921 0 0 0 
-2.161 -0.579 -0.922 0 0 0 
-2.036 -0.579 -0.793 0 0 0 
-1.867 -0.579 -0.793 0 0 0 
-1.991 -0.579 -0.793 0 0 0 
-2.08 -0.579 -0.792 0 0 0 
-1.947 -0.579 -0.792 0 0 0 
-1.902 -0.579 -0.764 0 0 0 
-1.901 -0.579 -0.737 0 0 0 
-1.761 -0.579 -0.724 0 0 0 
-1.9 -0.579 -0.711 0 0 0 
-1.889 -0.579 -0.651 0 0 0 
-1.853 -0.579 -0.628 0 0 0 
-1.878 -0.579 -0.617 0 0 0 
-1.764 -0.579 -0.597 0 0 0 
-1.896 -0.579 -0.628 0 0 0 
-1.749 -0.579 -0.639 0 0 0 
-1.593 -0.579 -0.606 0 0 0 
-1.566 -0.579 -0.586 0 0 0 
-1.533 -0.579 -0.586 0 0 0 
-1.6 -0.579 -0.586 0 0 0 
-1.457 -0.579 -0.575 0 0 0 
-1.27 -0.579 -0.576 0 0 0 
-1.199 -0.579 -0.575 0 0 0 
-1.686 -0.579 -0.597 0 0 0 
-1.727 -0.579 -0.725 0 0 0 
-1.823 -0.579 -0.765 0 0 0 
-1.929 -0.579 -0.808 0 0 0 
-2.438 -0.579 -1.084 0 0 0 
-2.357 -0.578 -1.038 0 0 0 
-2.286 -0.578 -0.997 0 0 0 
-2.205 -0.578 -0.977 0 0 0 
-2.252 -0.578 -0.92 0 0 0 
-2.188 -0.578 -0.939 0 0 0 
-2.09 -0.578 -0.853 0 0 0 
-2.135 -0.578 -0.852 0 0 0 
-2.063 -0.578 -0.837 0 0 0 
-2.008 -0.578 -0.75 0 0 0 
-1.969 -0.578 -0.673 0 0 0 
-1.899 -0.578 -0.685 0 0 0 
-1.863 -0.578 -0.662 0 0 0 
-1.907 -0.578 -0.662 0 0 0 
-1.86 -0.578 -0.606 0 0 0 
-1.845 -0.578 -0.65 0 0 0 
-1.713 -0.578 -0.616 0 0 0 
-1.816 -0.578 -0.606 0 0 0 
-1.668 -0.578 -0.585 0 0 0 
-1.499 -0.578 -0.585 0 0 0 
-1.302 -0.578 -0.585 0 0 0 
-1.582 -0.578 -0.575 0 0 0 
-1.549 -0.578 -0.575 0 0 0 
-1.318 -0.578 -0.575 0 0 0 
-1.254 -0.578 -0.585 0 0 0 
-1.834 -0.578 -0.617 0 0 0 
-1.777 -0.578 -0.685 0 0 0 
-1.964 -0.578 -0.75 0 0 0 
-2.162 -0.578 -0.868 0 0 0 
-2.25 -0.578 -0.976 0 0 0 
-2.518 -0.578 -1.13 0 0 0 
-2.675 -0.578 -1.154 0 0 0 
-2.731 -0.577 -1.152 0 0 0 
-2.686 -0.577 -1.128 0 0 0 
-2.697 -0.576 -1.102 0 0 0 
-2.708 -0.575 -1.076 0 0 0 
-2.728 -0.575 -1.054 0 0 0 
-2.662 -0.574 -1.053 0 0 0 
-2.692 -0.572 -1.005 0 0 0 
-2.738 -0.572 -1.028 0 0 0 
-2.702 -0.569 -0.98 0 0 0 
-2.731 -0.565 -0.899 0 0 0 
-2.74 -0.565 -0.936 0 0 0 
-2.749 -0.562 -0.844 0 0 0 
-2.712 -0.562 -0.86 0 0 0 
-2.748 -0.561 -0.812 0 0 0 
-2.72 -0.562 -0.799 0 0 0 
-2.747 -0.559 -0.78 0 0 0 
-2.727 -0.559 -0.738 0 0 0 
-2.735 -0.557 -0.709 0 0 0 
-2.733 -0.558 -0.674 0 0 0 
-2.739 -0.553 -0.611 0 0 0 
-2.746 -0.552 -0.579 0 0 0 
-2.733 -0.547 -0.544 0 0 0 
-2.722 -0.556 -0.636 0 0 0 
-2.72 -0.555 -0.602 0 0 0 
-2.719 -0.56 -0.767 0 0 0 
-2.712 -0.565 -0.955 0 0 0 
-2.703 -0.566 -0.918 0 0 0 
-2.694 -0.565 -0.882 0 0 0 
-2.7 -0.563 -0.757 0 0 0 
-2.711 -0.561 -0.828 0 0 0 
-2.705 -0.558 -0.662 0 0 0 
-2.707 -0.557 -0.697 0 0 0 
-2.699 -0.56 -0.725 0 0 0 
-2.693 -0.556 -0.625 0 0 0 
-2.691 -0.554 -0.591 0 0 0 
-2.698 -0.548 -0.564 0 0 0 
-2.688 -0.551 -0.557 0 0 0 
-2.684 -0.563 -0.847 0 0 0 
-2.682 -0.561 -0.783 0 0 0 
-2.682 -0.574 -1.031 0 0 0 
-2.647 -0.568 -0.922 0 0 0 
-2.656 -0.567 -0.958 0 0 0 
-2.675 -0.566 -0.937 0 0 0 
-2.674 -0.561 -0.812 0 0 0 
-2.67 -0.56 -0.713 0 0 0 
-2.678 -0.558 -0.685 0 0 0 
-2.676 -0.558 -0.65 0 0 0 
-2.666 -0.566 -0.901 0 0 0 
-2.656 -0.565 -0.865 0 0 0 
-2.656 -0.565 -0.833 0 0 0 
-2.646 -0.562 -0.798 0 0 0 
-2.665 -0.555 -0.613 0 0 0 
-2.662 -0.553 -0.58 0 0 0 
-2.662 -0.561 -0.741 0 0 0 
-2.645 -0.56 -0.767 0 0 0 
-2.65 -0.557 -0.673 0 0 0 
-2.648 -0.558 -0.638 0 0 0 
-2.659 -0.55 -0.547 0 0 0 
-2.643 -0.574 -1.075 0 0 0 
-2.641 -0.577 -1.104 0 0 0 
-2.596 -0.577 -1.08 0 0 0 
-2.514 -0.577 -1.036 0 0 0 
-2.495 -0.576 -1.056 0 0 0 
-2.332 -0.577 -0.995 0 0 0 
-2.315 -0.577 -0.956 0 0 0 
-2.296 -0.577 -0.974 0 0 0 
-2.231 -0.577 -0.994 0 0 0 
-2.17 -0.577 -0.901 0 0 0 
-2.189 -0.577 -0.884 0 0 0 
-2.125 -0.577 -0.82 0 0 0 
-2.104 -0.577 -0.696 0 0 0 
-2.098 -0.577 -0.776 0 0 0 
-2.098 -0.577 -0.804 0 0 0 
-2.054 -0.577 -0.805 0 0 0 
-1.937 -0.577 -0.735 0 0 0 
-2.032 -0.577 -0.683 0 0 0 
-2.051 -0.577 -0.722 0 0 0 
-2.025 -0.577 -0.734 0 0 0 
-2.006 -0.577 -0.696 0 0 0 
-1.988 -0.577 -0.684 0 0 0 
-2.097 -0.577 -0.748 0 0 0 
-1.937 -0.577 -0.762 0 0 0 
-1.773 -0.577 -0.605 0 0 0 
-1.575 -0.577 -0.595 0 0 0 
-1.805 -0.577 -0.573 0 0 0 
-1.78 -0.577 -0.584 0 0 0 
-1.874 -0.577 -0.722 0 0 0 
-1.965 -0.577 -0.805 0 0 0 
-2.18 -0.577 -0.851 0 0 0 
-2.215 -0.577 -0.956 0 0 0 
-2.459 -0.577 -1.036 0 0 0 
-2.469 -0.576 -1.012 0 0 0 
-2.361 -0.576 -0.953 0 0 0 
-2.26 -0.576 -0.954 0 0 0 
-2.198 -0.576 -0.834 0 0 0 
-2.143 -0.576 -0.774 0 0 0 
-2.143 -0.576 -0.803 0 0 0 
-2.07 -0.576 -0.733 0 0 0 
-1.936 -0.576 -0.708 0 0 0 
-2.05 -0.576 -0.695 0 0 0 
-2.024 -0.576 -0.707 0 0 0 
-1.924 -0.576 -0.648 0 0 0 
-1.906 -0.576 -0.636 0 0 0 
-1.931 -0.576 -0.625 0 0 0 
-1.913 -0.576 -0.614 0 0 0 
-1.729 -0.576 -0.604 0 0 0 
-1.762 -0.576 -0.573 0 0 0 
-1.684 -0.576 -0.573 0 0 0 
-1.895 -0.576 -0.603 0 0 0 
-1.942 -0.576 -0.659 0 0 0 
-2.058 -0.576 -0.671 0 0 0 
-2.225 -0.576 -0.849 0 0 0 
-2.52 -0.576 -1.101 0 0 0 
-2.531 -0.575 -1.077 0 0 0 
-2.636 -0.573 -1.008 0 0 0 
-2.617 -0.573 -1.03 0 0 0 
-2.637 -0.569 -0.98 0 0 0 
-2.629 -0.566 -0.883 0 0 0 
-2.636 -0.555 -0.602 0 0 0 
-2.628 -0.57 -0.943 0 0 0 
-2.61 -0.568 -0.904 0 0 0 
-2.619 -0.564 -0.848 0 0 0 
-2.618 -0.563 -0.785 0 0 0 
-2.626 -0.563 -0.756 0 0 0 
-2.623 -0.556 -0.695 0 0 0 
-2.621 -0.557 -0.661 0 0 0 
-2.624 -0.55 -0.567 0 0 0 
-2.619 -0.557 -0.626 0 0 0 
-2.618 -0.564 -0.816 0 0 0 
-2.615 -0.558 -0.723 0 0 0 
-2.617 -0.556 -0.593 0 0 0 
-2.606 -0.575 -1.055 0 0 0 
-2.525 -0.575 -1.012 0 0 0 
-2.443 -0.574 -0.969 0 0 0 
-2.424 -0.574 -0.989 0 0 0 
-2.224 -0.575 -0.934 0 0 0 
-2.361 -0.574 -0.896 0 0 0 
-2.343 -0.575 -0.915 0 0 0 
-2.261 -0.575 -0.898 0 0 0 
-2.243 -0.575 -0.802 0 0 0 
-2.243 -0.574 -0.831 0 0 0 
-2.225 -0.574 -0.879 0 0 0 
-2.144 -0.575 -0.832 0 0 0 
-2.216 -0.574 -0.816 0 0 0 
-2.188 -0.574 -0.801 0 0 0 
-2.188 -0.574 -0.772 0 0 0 
-2.157 -0.575 -0.669 0 0 0 
-2.116 -0.575 -0.788 0 0 0 
-2.115 -0.575 -0.76 0 0 0 
-2.043 -0.575 -0.746 0 0 0 
-1.91 -0.575 -0.746 0 0 0 
-1.954 -0.575 -0.72 0 0 0 
-2.076 -0.575 -0.682 0 0 0 
-1.998 -0.575 -0.719 0 0 0 
-1.986 -0.575 -0.658 0 0 0 
-1.909 -0.575 -0.719 0 0 0 
2.467 -0.575 -0.706 0 0 0 
-1.994 -0.575 -0.635 0 0 0 
-1.975 -0.575 -0.624 0 0 0 
-1.939 -0.575 -0.603 0 0 0 
-1.789 -0.575 -0.592 0 0 0 
-1.968 -0.575 -0.647 0 0 0 
-1.973 -0.575 -0.758 0 0 0 
-2.061 -0.574 -0.758 0 0 0 
-2.087 -0.574 -0.717 0 0 0 
-1.972 -0.574 -0.731 0 0 0 
-1.971 -0.574 -0.705 0 0 0 
-2.103 -0.574 -0.669 0 0 0 
-2.11 -0.574 -0.645 0 0 0 
-2.038 -0.574 -0.634 0 0 0 
-1.84 -0.574 -0.571 0 0 0 
-1.814 -0.574 -0.581 0 0 0 
-2.031 -0.574 -0.657 0 0 0 
-2.121 -0.574 -0.68 0 0 0 
-2.198 -0.574 -0.863 0 0 0 
-2.288 -0.574 -0.914 0 0 0 
-2.27 -0.574 -0.932 0 0 0 
-2.542 -0.574 -1.052 0 0 0 
5.727 -0.561 -1.051 0 0 0 
5.737 -0.571 -1.048 0 0 0 
5.737 -0.553 -1.057 0 0 0 
5.737 -0.544 -1.062 0 0 0 
6.002 -0.572 -1.048 0 0 0 
5.747 -0.535 -1.069 0 0 0 
-2.543 -0.57 -1.024 0 0 0 
-2.59 -0.572 -0.986 0 0 0 
-2.6 -0.569 -0.961 0 0 0 
-2.601 -0.567 -0.869 0 0 0 
-2.582 -0.563 -0.831 0 0 0 
-2.581 -0.563 -0.8 0 0 0 
-2.589 -0.563 -0.772 0 0 0 
-2.583 -0.56 -0.641 0 0 0 
-2.581 -0.56 -0.608 0 0 0 
-2.585 -0.56 -0.676 0 0 0 
-2.604 -0.558 -0.686 0 0 0 
-2.602 -0.559 -0.651 0 0 0 
-2.587 -0.558 -0.71 0 0 0 
-2.6 -0.559 -0.617 0 0 0 
-2.598 -0.557 -0.584 0 0 0 
-2.595 -0.549 -0.556 0 0 0 
-2.579 -0.559 -0.738 0 0 0 
-2.576 -0.55 -0.547 0 0 0 
-2.573 -0.566 -0.919 0 0 0 
-2.571 -0.572 -1.007 0 0 0 
-2.333 -0.573 -0.968 0 0 0 
-2.37 -0.573 -0.93 0 0 0 
-2.315 -0.573 -0.93 0 0 0 
-2.243 -0.573 -0.861 0 0 0 
-2.161 -0.573 -0.815 0 0 0 
-2.113 -0.573 -0.704 0 0 0 
-2.075 -0.573 -0.655 0 0 0 
-2.057 -0.573 -0.644 0 0 0 
-2.043 -0.573 -0.58 0 0 0 
-2.025 -0.573 -0.57 0 0 0 
-1.94 -0.573 -0.633 0 0 0 
-2.159 -0.573 -0.73 0 0 0 
-2.307 -0.573 -0.895 0 0 0 
-2.369 -0.573 -0.988 0 0 0 
5.767 -0.532 -1.017 0 0 0 
5.767 -0.54 -1.012 0 0 0 
-2.47 -0.571 -0.985 0 0 0 
-2.554 -0.57 -0.907 0 0 0 
-2.535 -0.568 -0.96 0 0 0 
-2.554 -0.567 -0.939 0 0 0 
-2.566 -0.562 -0.666 0 0 0 
-2.564 -0.566 -0.883 0 0 0 
-2.536 -0.567 -0.869 0 0 0 
-2.554 -0.564 -0.848 0 0 0 
-2.526 -0.566 -0.834 0 0 0 
-2.553 -0.564 -0.786 0 0 0 
-2.561 -0.564 -0.758 0 0 0 
-2.544 -0.562 -0.814 0 0 0 
-2.56 -0.561 -0.728 0 0 0 
-2.558 -0.558 -0.698 0 0 0 
-2.545 -0.558 -0.627 0 0 0 
-2.55 -0.552 -0.568 0 0 0 
-2.543 -0.557 -0.594 0 0 0 
-2.538 -0.561 -0.654 0 0 0 
-2.526 -0.559 -0.618 0 0 0 
-2.53 -0.558 -0.685 0 0 0 
-2.526 -0.565 -0.803 0 0 0 
-2.526 -0.571 -0.984 0 0 0 
-2.48 -0.572 -0.929 0 0 0 
-2.444 -0.572 -0.911 0 0 0 
-2.325 -0.572 -0.877 0 0 0 
-2.343 -0.572 -0.828 0 0 0 
-2.288 -0.572 -0.828 0 0 0 
-2.261 -0.572 -0.814 0 0 0 
-2.316 -0.572 -0.843 0 0 0 
-2.261 -0.572 -0.843 0 0 0 
-2.206 -0.572 -0.784 0 0 0 
-2.205 -0.572 -0.755 0 0 0 
-2.152 -0.572 -0.783 0 0 0 
-2.151 -0.572 -0.754 0 0 0 
-2.14 -0.572 -0.691 0 0 0 
-2.136 -0.572 -0.632 0 0 0 
-2.132 -0.572 -0.715 0 0 0 
-2.105 -0.572 -0.728 0 0 0 
-2.059 -0.572 -0.703 0 0 0 
-1.995 -0.572 -0.666 0 0 0 
-2.082 -0.572 -0.632 0 0 0 
-1.948 -0.572 -0.61 0 0 0 
-2.045 -0.572 -0.61 0 0 0 
-1.911 -0.572 -0.589 0 0 0 
-1.867 -0.572 -0.589 0 0 0 
-1.849 -0.572 -0.579 0 0 0 
-1.824 -0.572 -0.589 0 0 0 
-2.064 -0.572 -0.621 0 0 0 
-2.118 -0.572 -0.621 0 0 0 
-2.186 -0.572 -0.716 0 0 0 
-2.233 -0.572 -0.77 0 0 0 
-2.27 -0.572 -0.877 0 0 0 
-2.379 -0.572 -0.965 0 0 0 
-2.489 -0.571 -0.965 0 0 0 
-2.462 -0.571 -0.891 0 0 0 
-2.508 -0.57 -0.945 0 0 0 
-2.517 -0.567 -0.921 0 0 0 
-2.518 -0.569 -0.889 0 0 0 
-2.525 -0.564 -0.773 0 0 0 
-2.499 -0.566 -0.851 0 0 0 
-2.498 -0.566 -0.789 0 0 0 
-2.506 -0.567 -0.762 0 0 0 
-2.522 -0.559 -0.712 0 0 0 
-2.524 -0.558 -0.585 0 0 0 
-2.521 -0.55 -0.557 0 0 0 
-2.521 -0.562 -0.678 0 0 0 
-2.496 -0.562 -0.729 0 0 0 
-2.514 -0.56 -0.739 0 0 0 
-2.494 -0.559 -0.699 0 0 0 
-2.492 -0.561 -0.665 0 0 0 
-2.512 -0.553 -0.55 0 0 0 
-2.5 -0.558 -0.639 0 0 0 
-2.498 -0.558 -0.606 0 0 0 
-2.49 -0.569 -0.906 0 0 0 
-2.481 -0.569 -0.871 0 0 0 
-2.471 -0.567 -0.837 0 0 0 
-2.461 -0.564 -0.773 0 0 0 
-2.489 -0.564 -0.817 0 0 0 
-2.475 -0.561 -0.689 0 0 0 
-2.467 -0.562 -0.716 0 0 0 
-2.474 -0.563 -0.655 0 0 0 
-2.481 -0.56 -0.629 0 0 0 
-2.469 -0.557 -0.594 0 0 0 
-2.486 -0.554 -0.571 0 0 0 
-2.462 -0.561 -0.62 0 0 0 
-2.461 -0.565 -0.803 0 0 0 
-2.456 -0.563 -0.679 0 0 0 
-2.459 -0.563 -0.743 0 0 0 
-2.457 -0.553 -0.559 0 0 0 
-2.453 -0.571 -0.946 0 0 0 
-2.416 -0.571 -0.927 0 0 0 
-2.398 -0.571 -0.858 0 0 0 
-2.343 -0.571 -0.858 0 0 0 
-2.178 -0.571 -0.741 0 0 0 
-2.124 -0.571 -0.74 0 0 0 
-2.166 -0.571 -0.677 0 0 0 
-2.119 -0.571 -0.653 0 0 0 
-2.155 -0.571 -0.642 0 0 0 
-2.053 -0.571 -0.588 0 0 0 
-1.992 -0.571 -0.609 0 0 0 
-1.974 -0.571 -0.599 0 0 0 
-1.955 -0.571 -0.588 0 0 0 
-1.937 -0.571 -0.578 0 0 0 
-1.874 -0.571 -0.568 0 0 0 
-2.01 -0.571 -0.62 0 0 0 
-2.158 -0.571 -0.702 0 0 0 
-2.289 -0.571 -0.858 0 0 0 
-2.397 -0.571 -0.946 0 0 0 
-2.38 -0.57 -0.908 0 0 0 
-2.426 -0.57 -0.873 0 0 0 
-2.444 -0.568 -0.853 0 0 0 
-2.434 -0.566 -0.819 0 0 0 
-2.416 -0.569 -0.839 0 0 0 
-2.416 -0.569 -0.808 0 0 0 
-2.445 -0.562 -0.643 0 0 0 
-2.45 -0.558 -0.585 0 0 0 
-2.442 -0.567 -0.762 0 0 0 
-2.414 -0.567 -0.748 0 0 0 
-2.433 -0.566 -0.789 0 0 0 
-2.406 -0.566 -0.775 0 0 0 
-2.431 -0.563 -0.729 0 0 0 
-2.409 -0.563 -0.656 0 0 0 
-2.403 -0.562 -0.716 0 0 0 
-2.439 -0.562 -0.703 0 0 0 
-2.411 -0.562 -0.69 0 0 0 
-2.428 -0.562 -0.666 0 0 0 
-2.417 -0.561 -0.631 0 0 0 
-2.438 -0.553 -0.55 0 0 0 
-2.434 -0.56 -0.608 0 0 0 
-2.405 -0.558 -0.596 0 0 0 
-2.412 -0.554 -0.571 0 0 0 
-2.402 -0.565 -0.682 0 0 0 
-2.398 -0.562 -0.621 0 0 0 
-2.398 -0.569 -0.889 0 0 0 
-2.361 -0.57 -0.81 0 0 0 
-2.306 -0.57 -0.81 0 0 0 
-2.306 -0.57 -0.781 0 0 0 
-2.251 -0.57 -0.781 0 0 0 
-2.278 -0.57 -0.766 0 0 0 
-2.25 -0.57 -0.752 0 0 0 
-2.192 -0.57 -0.664 0 0 0 
-2.162 -0.57 -0.618 0 0 0 
-2.125 -0.57 -0.598 0 0 0 
-2.09 -0.57 -0.608 0 0 0 
-2.071 -0.57 -0.598 0 0 0 
-1.981 -0.57 -0.576 0 0 0 
-1.918 -0.57 -0.567 0 0 0 
-2.018 -0.57 -0.597 0 0 0 
-2.184 -0.57 -0.688 0 0 0 
-2.279 -0.57 -0.796 0 0 0 
-2.371 -0.57 -0.874 0 0 0 
-2.361 -0.569 -0.84 0 0 0 
-2.389 -0.569 -0.824 0 0 0 
-2.351 -0.567 -0.777 0 0 0 
-2.379 -0.567 -0.791 0 0 0 
-2.378 -0.566 -0.761 0 0 0 
-2.391 -0.565 -0.646 0 0 0 
-2.377 -0.564 -0.732 0 0 0 
-2.37 -0.561 -0.609 0 0 0 
-2.366 -0.56 -0.7 0 0 0 
-2.393 -0.555 -0.561 0 0 0 
-2.386 -0.559 -0.586 0 0 0 
-2.374 -0.555 -0.552 0 0 0 
-2.364 -0.562 -0.667 0 0 0 
-2.358 -0.558 -0.574 0 0 0 
-2.355 -0.566 -0.659 0 0 0 
-2.35 -0.566 -0.747 0 0 0 
-2.349 -0.564 -0.718 0 0 0 
-2.347 -0.561 -0.69 0 0 0 
-2.338 -0.565 -0.682 0 0 0 
-2.334 -0.562 -0.621 0 0 0 
-2.353 -0.561 -0.631 0 0 0 
-2.341 -0.559 -0.596 0 0 0 
-2.332 -0.562 -0.589 0 0 0 
-2.332 -0.569 -0.766 0 0 0 
-2.277 -0.569 -0.738 0 0 0 
-2.211 -0.569 -0.674 0 0 0 
-2.195 -0.569 -0.724 0 0 0 
-1.962 -0.569 -0.566 0 0 0 
-1.884 -0.569 -0.576 0 0 0 
-2.203 -0.569 -0.699 0 0 0 
-2.223 -0.569 -0.738 0 0 0 
-2.324 -0.568 -0.792 0 0 0 
-2.311 -0.567 -0.697 0 0 0 
-2.322 -0.566 -0.734 0 0 0 
-2.329 -0.556 -0.562 0 0 0 
-2.321 -0.564 -0.705 0 0 0 
-2.31 -0.564 -0.669 0 0 0 
-2.317 -0.563 -0.644 0 0 0 
-2.32 -0.558 -0.555 0 0 0 
-2.306 -0.561 -0.609 0 0 0 
-2.3 -0.568 -0.661 0 0 0 
-2.164 -0.568 -0.65 0 0 0 
-2.134 -0.568 -0.605 0 0 0 
-2.097 -0.568 -0.585 0 0 0 
-2.132 -0.568 -0.575 0 0 0 
-2.078 -0.568 -0.575 0 0 0 
-2.06 -0.568 -0.565 0 0 0 
-2.2 -0.568 -0.639 0 0 0 
-2.295 -0.567 -0.749 0 0 0 
-2.294 -0.565 -0.72 0 0 0 
-2.299 -0.564 -0.634 0 0 0 
-2.294 -0.558 -0.575 0 0 0 
-2.283 -0.567 -0.684 0 0 0 
-2.229 -0.567 -0.685 0 0 0 
-2.237 -0.567 -0.66 0 0 0 
-2.188 -0.567 -0.605 0 0 0 
-1.99 -0.567 -0.584 0 0 0 
-2.172 -0.567 -0.626 0 0 0 
-2.276 -0.567 -0.709 0 0 0 
-2.24 -0.566 -0.721 0 0 0 
-2.263 -0.564 -0.646 0 0 0 
-2.27 -0.562 -0.621 0 0 0 
-2.278 -0.559 -0.597 0 0 0 
-2.275 -0.558 -0.565 0 0 0 
-2.268 -0.562 -0.589 0 0 0 
-2.256 -0.559 -0.556 0 0 0 
-2.255 -0.566 -0.67 0 0 0 
-2.207 -0.566 -0.615 0 0 0 
-2.248 -0.566 -0.695 0 0 0 
-2.212 -0.565 -0.707 0 0 0 
-2.209 -0.565 -0.647 0 0 0 
2.475 -0.561 -0.689 0 0 0 
2.536 -0.534 -0.644 0 0 0 
-2.244 -0.565 -0.635 0 0 0 
-2.214 -0.564 -0.591 0 0 0 
-2.177 -0.564 -0.571 0 0 0 
-2.195 -0.564 -0.581 0 0 0 
-2.216 -0.563 -0.623 0 0 0 
-2.252 -0.563 -0.611 0 0 0 
-2.24 -0.56 -0.577 0 0 0 
-2.224 -0.561 -0.598 0 0 0 
-2.221 -0.561 -0.567 0 0 0 
-2.193 -0.558 -0.555 0 0 0 
-2.16 -0.565 -0.592 0 0 0 
-2.104 -0.565 -0.562 0 0 0 
-2.132 -0.563 -0.58 0 0 0 
-2.148 -0.562 -0.559 0 0 0 
-5.941 -0.531 -1.413 0 0 0 
-6.087 -0.531 -1.452 0 0 0 
-5.877 -0.529 -1.337 0 0 0 
-5.75 -0.529 -1.304 0 0 0 
-5.228 -0.53 -1.058 0 0 0 
-4.652 -0.53 -0.86 0 0 0 
-4.466 -0.53 -0.812 0 0 0 
-4.22 -0.53 -0.7 0 0 0 
-4.171 -0.53 -0.687 0 0 0 
-4.083 -0.53 -0.663 0 0 0 
-3.995 -0.53 -0.64 0 0 0 
-3.955 -0.53 -0.629 0 0 0 
-4.192 -0.53 -0.74 0 0 0 
-4.525 -0.53 -0.827 0 0 0 
-5.643 -0.53 -1.275 0 0 0 
-5.5 -0.529 -1.182 0 0 0 
-5.402 -0.529 -1.157 0 0 0 
-5.295 -0.529 -1.129 0 0 0 
-5.17 -0.529 -0.99 0 0 0 
-5.043 -0.529 -1.011 0 0 0 
-4.964 -0.529 -0.991 0 0 0 
-4.808 -0.529 -0.951 0 0 0 
-4.779 -0.529 -0.893 0 0 0 
-4.583 -0.529 -0.843 0 0 0 
-4.259 -0.529 -0.711 0 0 0 
-4.041 -0.529 -0.605 0 0 0 
-3.815 -0.529 -0.544 0 0 0 
-3.786 -0.529 -0.536 0 0 0 
-3.854 -0.529 -0.555 0 0 0 
-4.474 -0.529 -0.766 0 0 0 
-4.857 -0.529 -0.912 0 0 0 
-5.198 -0.529 -1.104 0 0 0 
-6.213 -0.529 -1.486 0 0 0 
-6.341 -0.529 -1.897 0 0 0 
-6.295 -0.528 -1.571 0 0 0 
-6.23 -0.528 -1.369 0 0 0 
-5.714 -0.528 -1.238 0 0 0 
-5.607 -0.528 -1.21 0 0 0 
-4.877 -0.528 -0.969 0 0 0 
-4.7 -0.528 -0.874 0 0 0 
-4.159 -0.528 -0.637 0 0 0 
-3.953 -0.528 -0.583 0 0 0 
-3.884 -0.528 -0.564 0 0 0 
-3.747 -0.528 -0.526 0 0 0 
-4.028 -0.528 -0.553 0 0 0 
-5.121 -0.528 -1.031 0 0 0 
-6.093 -0.528 -1.334 0 0 0 
-6.371 -0.528 -1.718 0 0 0 
-6.668 -0.528 -2.47 0 0 0 
-6.567 -0.527 -2.365 0 0 0 
-3.853 -0.527 -2.184 0 0 0 
-6.61 -0.527 -2.181 0 0 0 
-6.543 -0.527 -2.027 0 0 0 
-6.265 -0.527 -1.44 0 0 0 
-6.059 -0.527 -1.206 0 0 0 
-5.831 -0.527 -1.268 0 0 0 
-5.706 -0.527 -1.179 0 0 0 
-5.512 -0.527 -1.075 0 0 0 
-5.238 -0.527 -1.008 0 0 0 
-4.572 -0.527 -0.792 0 0 0 
-4.513 -0.527 -0.777 0 0 0 
-4.406 -0.527 -0.749 0 0 0 
-4.347 -0.527 -0.735 0 0 0 
-4.335 -0.527 -0.683 0 0 0 
-4.286 -0.527 -0.67 0 0 0 
-4.215 -0.527 -0.603 0 0 0 
-4.109 -0.527 -0.625 0 0 0 
-3.913 -0.527 -0.573 0 0 0 
-4.07 -0.527 -0.614 0 0 0 
-4.298 -0.527 -0.722 0 0 0 
-4.915 -0.527 -0.928 0 0 0 
-5.394 -0.527 -1.101 0 0 0 
-5.947 -0.527 -1.298 0 0 0 
-6.397 -0.527 -1.662 0 0 0 
-6.83 -0.527 -2.464 0 0 0 
-6.873 -0.526 -2.691 0 0 0 
-7.037 -0.525 -2.685 0 0 0 
-7.002 -0.526 -2.459 0 0 0 
-3.823 -0.525 -2.354 0 0 0 
-6.901 -0.525 -2.352 0 0 0 
-6.837 -0.525 -2.261 0 0 0 
-6.781 -0.525 -2.174 0 0 0 
-6.656 -0.526 -2.264 0 0 0 
-6.509 -0.526 -1.823 0 0 0 
-6.492 -0.525 -1.882 0 0 0 
-6.421 -0.525 -1.607 0 0 0 
-6.047 -0.526 -1.263 0 0 0 
-5.932 -0.526 -1.176 0 0 0 
-5.93 -0.526 -1.234 0 0 0 
-5.803 -0.526 -1.203 0 0 0 
-5.589 -0.526 -1.15 0 0 0 
-5.286 -0.526 -1.074 0 0 0 
-5.404 -0.526 -1.049 0 0 0 
-4.984 -0.526 -0.945 0 0 0 
5.747 -0.526 -1.073 0 0 0 
-5.199 -0.526 -0.945 0 0 0 
-4.964 -0.526 -0.888 0 0 0 
-4.69 -0.526 -0.821 0 0 0 
-4.482 -0.526 -0.72 0 0 0 
-4.237 -0.526 -0.658 0 0 0 
-4.188 -0.526 -0.646 0 0 0 
-4.048 -0.526 -0.561 0 0 0 
-3.982 -0.526 -0.592 0 0 0 
-3.94 -0.526 -0.532 0 0 0 
-4.254 -0.526 -0.613 0 0 0 
-4.758 -0.526 -0.838 0 0 0 
-5.062 -0.526 -0.965 0 0 0 
-5.481 -0.526 -1.123 0 0 0 
-5.824 -0.526 -1.15 0 0 0 
-6.329 -0.526 -1.519 0 0 0 
-6.337 -0.525 -1.397 0 0 0 
-6.164 -0.525 -1.292 0 0 0 
-5.6 -0.525 -1.096 0 0 0 
-5.355 -0.525 -0.983 0 0 0 
-5.306 -0.525 -1.026 0 0 0 
-4.885 -0.525 -0.87 0 0 0 
-4.817 -0.525 -0.853 0 0 0 
-4.621 -0.525 -0.805 0 0 0 
-4.531 -0.525 -0.733 0 0 0 
-4.423 -0.525 -0.706 0 0 0 
-4.374 -0.525 -0.694 0 0 0 
-3.969 -0.525 -0.541 0 0 0 
-3.9 -0.525 -0.522 0 0 0 
-4.59 -0.525 -0.747 0 0 0 
-5.032 -0.525 -0.905 0 0 0 
-5.697 -0.525 -1.12 0 0 0 
-6.504 -0.525 -1.95 0 0 0 
-6.743 -0.525 -2.094 0 0 0 
-6.911 -0.525 -2.565 0 0 0 
-7.363 -0.525 -2.815 0 0 0 
-7.201 -0.524 -2.677 0 0 0 
-7.384 -0.523 -2.673 0 0 0 
-7.348 -0.522 -2.439 0 0 0 
-7.166 -0.523 -2.447 0 0 0 
-7.093 -0.524 -2.35 0 0 0 
-7.284 -0.523 -2.344 0 0 0 
-7.229 -0.523 -2.254 0 0 0 
-3.907 -0.524 -2.171 0 0 0 
-6.972 -0.524 -2.169 0 0 0 
-6.692 -0.524 -1.879 0 0 0 
-6.474 -0.524 -1.559 0 0 0 
-6.391 -0.524 -1.473 0 0 0 
-6.051 -0.524 -1.144 0 0 0 
-5.532 -0.524 -1.024 0 0 0 
-5.257 -0.524 -0.96 0 0 0 
-5.247 -0.524 -0.903 0 0 0 
-4.816 -0.524 -0.802 0 0 0 
-4.323 -0.524 -0.632 0 0 0 
-4.156 -0.524 -0.59 0 0 0 
-4.116 -0.524 -0.579 0 0 0 
-4.084 -0.524 -0.521 0 0 0 
-4.077 -0.524 -0.569 0 0 0 
-5.169 -0.524 -0.885 0 0 0 
-5.434 -0.524 -1.002 0 0 0 
-6.157 -0.524 -1.23 0 0 0 
-6.516 -0.524 -1.761 0 0 0 
-7.018 -0.524 -2.254 0 0 0 
-6.689 -0.523 -1.813 0 0 0 
-6.532 -0.523 -1.702 0 0 0 
-6.158 -0.523 -1.169 0 0 0 
-5.933 -0.523 -1.118 0 0 0 
-5.61 -0.523 -1.043 0 0 0 
-5.091 -0.523 -0.921 0 0 0 
-5.012 -0.523 -0.849 0 0 0 
5.767 -0.523 -1.021 0 0 0 
-4.943 -0.523 -0.833 0 0 0 
-4.875 -0.523 -0.817 0 0 0 
-4.688 -0.523 -0.772 0 0 0 
-4.629 -0.523 -0.758 0 0 0 
-4.843 -0.523 -0.757 0 0 0 
-4.559 -0.523 -0.69 0 0 0 
-4.46 -0.523 -0.666 0 0 0 
-4.411 -0.523 -0.654 0 0 0 
-4.274 -0.523 -0.62 0 0 0 
-4.271 -0.523 -0.568 0 0 0 
-4.192 -0.523 -0.548 0 0 0 
-4.113 -0.523 -0.529 0 0 0 
-4.231 -0.523 -0.558 0 0 0 
-4.509 -0.523 -0.678 0 0 0 
-4.747 -0.523 -0.786 0 0 0 
-5.816 -0.523 -1.091 0 0 0 
-6.281 -0.523 -1.322 0 0 0 
-7.266 -0.523 -2.556 0 0 0 
-3.779 -0.519 -2.234 0 0 0 
-7.163 -0.522 -2.162 0 0 0 
-7.316 -0.519 -2.068 0 0 0 
-7.134 -0.522 -2.083 0 0 0 
-6.914 -0.522 -2.083 0 0 0 
-6.895 -0.522 -2.008 0 0 0 
-7.114 -0.522 -2.007 0 0 0 
-6.891 -0.522 -1.872 0 0 0 
-6.908 -0.522 -1.81 0 0 0 
-6.884 -0.522 -1.937 0 0 0 
-6.676 -0.522 -2.006 0 0 0 
-6.665 -0.522 -1.937 0 0 0 
-6.715 -0.522 -1.755 0 0 0 
-7.122 -0.522 -1.94 0 0 0 
-7.11 -0.521 -1.867 0 0 0 
-7.127 -0.52 -1.803 0 0 0 
-7.172 -0.52 -1.746 0 0 0 
-6.949 -0.519 -1.687 0 0 0 
-6.914 -0.52 -1.745 0 0 0 
-6.61 -0.521 -1.596 0 0 0 
-6.566 -0.522 -1.648 0 0 0 
-6.673 -0.521 -1.548 0 0 0 
-6.508 -0.521 -1.505 0 0 0 
-6.071 -0.522 -1.089 0 0 0 
-5.708 -0.522 -1.066 0 0 0 
-5.306 -0.522 -0.918 0 0 0 
-5.08 -0.522 -0.865 0 0 0 
-4.716 -0.522 -0.728 0 0 0 
-4.352 -0.522 -0.641 0 0 0 
-4.3 -0.522 -0.577 0 0 0 
-4.143 -0.522 -0.537 0 0 0 
-4.608 -0.522 -0.702 0 0 0 
-5.394 -0.522 -0.937 0 0 0 
-6.454 -0.522 -1.427 0 0 0 
-5.747 -0.521 -1.018 0 0 0 
-5.561 -0.521 -0.976 0 0 0 
-5.158 -0.521 -0.829 0 0 0 
-5.02 -0.521 -0.798 0 0 0 
-4.952 -0.521 -0.783 0 0 0 
-4.714 -0.521 -0.675 0 0 0 
-4.468 -0.521 -0.617 0 0 0 
-4.379 -0.521 -0.596 0 0 0 
-4.277 -0.521 -0.518 0 0 0 
-4.657 -0.521 -0.714 0 0 0 
-5.089 -0.521 -0.814 0 0 0 
-6.74 -0.521 -1.696 0 0 0 
-6.775 -0.52 -1.64 0 0 0 
-6.829 -0.519 -1.588 0 0 0 
-6.379 -0.519 -1.347 0 0 0 
-6.246 -0.52 -1.191 0 0 0 
-5.944 -0.52 -1.062 0 0 0 
-5.836 -0.52 -1.038 0 0 0 
-6.013 -0.52 -1.016 0 0 0 
-5.64 -0.52 -0.994 0 0 0 
-5.541 -0.52 -0.915 0 0 0 
-5.462 -0.52 -0.897 0 0 0 
-5.374 -0.52 -0.878 0 0 0 
-5.295 -0.52 -0.861 0 0 0 
-4.883 -0.52 -0.767 0 0 0 
-4.763 -0.52 -0.687 0 0 0 
-4.755 -0.52 -0.738 0 0 0 
-4.556 -0.52 -0.639 0 0 0 
-4.507 -0.52 -0.628 0 0 0 
-4.418 -0.52 -0.606 0 0 0 
-4.33 -0.52 -0.585 0 0 0 
-4.307 -0.52 -0.526 0 0 0 
-4.655 -0.52 -0.662 0 0 0 
-5.227 -0.52 -0.845 0 0 0 
-5.463 -0.52 -0.954 0 0 0 
-6.235 -0.52 -1.25 0 0 0 
-5.806 -0.519 -0.972 0 0 0 
-5.62 -0.519 -0.932 0 0 0 
-4.595 -0.519 -0.649 0 0 0 
-4.415 -0.519 -0.553 0 0 0 
-4.376 -0.519 -0.544 0 0 0 
-4.336 -0.519 -0.535 0 0 0 
-4.812 -0.519 -0.698 0 0 0 
-6.736 -0.519 -1.499 0 0 0 
-7.313 -0.519 -1.925 0 0 0 
-7.451 -0.519 -3.081 0 0 0 
-7.371 -0.518 -3.438 0 0 0 
-7.305 -0.518 -1.994 0 0 0 
-7.335 -0.518 -2.146 0 0 0 
-7.303 -0.518 -3.249 0 0 0 
-7.003 -0.518 -1.634 0 0 0 
-6.344 -0.518 -1.214 0 0 0 
-5.885 -0.518 -0.99 0 0 0 
-5.698 -0.518 -0.95 0 0 0 
-6.002 -0.518 -0.892 0 0 0 
-5.176 -0.518 -0.779 0 0 0 
-4.92 -0.518 -0.723 0 0 0 
-4.861 -0.518 -0.71 0 0 0 
-4.721 -0.518 -0.625 0 0 0 
-4.672 -0.518 -0.614 0 0 0 
-4.583 -0.518 -0.593 0 0 0 
-4.534 -0.518 -0.582 0 0 0 
-4.632 -0.518 -0.604 0 0 0 
-5.107 -0.518 -0.764 0 0 0 
-6.14 -0.518 -1.106 0 0 0 
-7.207 -0.518 -1.686 0 0 0 
-7.478 -0.518 -3.9 0 0 0 
-7.492 -0.514 -3.415 0 0 0 
-7.441 -0.516 -3.233 0 0 0 
-7.599 -0.517 -3.065 0 0 0 
-7.599 -0.514 -2.756 0 0 0 
7.21 -0.516 -2.904 0 0 0 
7.831 -0.516 -2.764 0 0 0 
7.975 -0.514 -2.897 0 0 0 
-7.363 -0.517 -2.227 0 0 0 
-7.325 -0.515 -1.576 0 0 0 
-7.282 -0.515 -1.847 0 0 0 
-7.067 -0.517 -1.582 0 0 0 
-7.169 -0.517 -1.537 0 0 0 
-6.551 -0.517 -1.453 0 0 0 
-6.808 -0.517 -1.451 0 0 0 
-6.496 -0.517 -1.376 0 0 0 
-6.248 -0.517 -1.13 0 0 0 
-6.189 -0.517 -1.055 0 0 0 
5.747 -0.517 -1.078 0 0 0 
-6.072 -0.517 -0.968 0 0 0 
-5.609 -0.517 -0.873 0 0 0 
-5.235 -0.517 -0.793 0 0 0 
-5.028 -0.517 -0.748 0 0 0 
-4.969 -0.517 -0.735 0 0 0 
-4.77 -0.517 -0.636 0 0 0 
-4.445 -0.517 -0.562 0 0 0 
-4.484 -0.517 -0.571 0 0 0 
-5.304 -0.517 -0.808 0 0 0 
-6.081 -0.517 -1.032 0 0 0 
-6.365 -0.517 -1.156 0 0 0 
-6.882 -0.517 -1.536 0 0 0 
-7.271 -0.517 -1.632 0 0 0 
-6.964 -0.515 -1.489 0 0 0 
12.107 -0.516 -1.791 0 0 0 
-3.824 -0.515 -2.216 0 0 0 
-7.232 -0.514 -1.484 0 0 0 
-7.056 -0.514 -1.443 0 0 0 
-6.743 -0.515 -1.37 0 0 0 
-6.16 -0.516 -0.987 0 0 0 
-6.071 -0.516 -0.907 0 0 0 
-5.688 -0.516 -0.89 0 0 0 
-5.49 -0.516 -0.79 0 0 0 
-5.363 -0.516 -0.821 0 0 0 
-4.918 -0.516 -0.669 0 0 0 
-4.859 -0.516 -0.657 0 0 0 
-4.81 -0.516 -0.645 0 0 0 
-4.471 -0.516 -0.513 0 0 0 
-4.977 -0.516 -0.682 0 0 0 
-5.776 -0.516 -0.908 0 0 0 
-6.642 -0.516 -1.412 0 0 0 
-6.442 -0.515 -1.237 0 0 0 
-6.376 -0.514 -1.096 0 0 0 
-5.953 -0.515 -0.945 0 0 0 
-5.884 -0.515 -0.87 0 0 0 
-5.855 -0.515 -0.925 0 0 0 
-5.432 -0.515 -0.836 0 0 0 
-5.559 -0.515 -0.804 0 0 0 
-5.026 -0.515 -0.693 0 0 0 
-4.619 -0.515 -0.549 0 0 0 
-4.501 -0.515 -0.521 0 0 0 
-4.668 -0.515 -0.559 0 0 0 
-5.795 -0.515 -0.852 0 0 0 
-6.278 -0.515 -1.075 0 0 0 
-6.239 -0.514 -1.004 0 0 0 
-6.11 -0.514 -0.852 0 0 0 
-5.628 -0.514 -0.819 0 0 0 
-5.401 -0.514 -0.773 0 0 0 
-5.263 -0.514 -0.744 0 0 0 
-5.194 -0.514 -0.73 0 0 0 
-5.135 -0.514 -0.717 0 0 0 
-5.076 -0.514 -0.704 0 0 0 
-4.53 -0.514 -0.529 0 0 0 
-4.747 -0.514 -0.578 0 0 0 
-5.332 -0.514 -0.758 0 0 0 
-5.706 -0.514 -0.835 0 0 0 
-7.381 -0.514 -2.306 0 0 0 
-7.298 -0.513 -1.781 0 0 0 
-7.324 -0.511 -1.718 0 0 0 
-7.407 -0.512 -1.667 0 0 0 
-6.571 -0.513 -1.202 0 0 0 
-6.14 -0.513 -0.922 0 0 0 
5.757 -0.513 -1.024 0 0 0 
-5.491 -0.513 -0.85 0 0 0 
-5.044 -0.513 -0.641 0 0 0 
-4.935 -0.513 -0.619 0 0 0 
-4.886 -0.513 -0.608 0 0 0 
-4.836 -0.513 -0.598 0 0 0 
-4.787 -0.513 -0.587 0 0 0 
-4.56 -0.513 -0.537 0 0 0 
-4.698 -0.513 -0.567 0 0 0 
-4.994 -0.513 -0.631 0 0 0 
-6.001 -0.513 -0.832 0 0 0 
-6.88 -0.513 -1.403 0 0 0 
-6.434 -0.512 -1.173 0 0 0 
-6.274 -0.512 -1.262 0 0 0 
-6.484 -0.512 -1.119 0 0 0 
-6.416 -0.511 -1.042 0 0 0 
-6.219 -0.512 -0.938 0 0 0 
-6.169 -0.512 -0.865 0 0 0 
-5.201 -0.512 -0.675 0 0 0 
-4.912 -0.512 -0.556 0 0 0 
-5.675 -0.512 -0.77 0 0 0 
-6.318 -0.512 -1.021 0 0 0 
-6.248 -0.511 -0.88 0 0 0 
-5.902 -0.511 -0.814 0 0 0 
-5.744 -0.511 -0.783 0 0 0 
-5.586 -0.511 -0.753 0 0 0 
-5.32 -0.511 -0.7 0 0 0 
-5.261 -0.511 -0.687 0 0 0 
-5.083 -0.511 -0.651 0 0 0 
-4.853 -0.511 -0.545 0 0 0 
-4.724 -0.511 -0.517 0 0 0 
-4.685 -0.511 -0.508 0 0 0 
-4.764 -0.511 -0.526 0 0 0 
-5.132 -0.511 -0.662 0 0 0 
-5.517 -0.511 -0.739 0 0 0 
-5.823 -0.511 -0.799 0 0 0 
-7.51 -0.511 -4.804 0 0 0 
-7.239 -0.506 -5.187 0 0 0 
3.038 -0.501 -4.351 0 0 0 
-7.531 -0.505 -3.355 0 0 0 
-7.578 -0.504 -1.639 0 0 0 
-7.516 -0.508 -2.278 0 0 0 
-3.848 -0.508 -2.374 0 0 0 
-3.776 -0.509 -2.28 0 0 0 
-7.461 -0.51 -1.609 0 0 0 
-7.359 -0.509 -1.514 0 0 0 
-6.66 -0.509 -1.223 0 0 0 
-6.582 -0.51 -1.141 0 0 0 
-6.386 -0.509 -0.972 0 0 0 
-6.288 -0.509 -0.953 0 0 0 
-6.069 -0.51 -0.782 0 0 0 
-5.891 -0.509 -0.75 0 0 0 
-5.438 -0.51 -0.724 0 0 0 
-5.369 -0.509 -0.711 0 0 0 
-5.545 -0.509 -0.685 0 0 0 
-5.476 -0.509 -0.672 0 0 0 
-5.13 -0.509 -0.603 0 0 0 
-5.08 -0.509 -0.593 0 0 0 
-4.971 -0.509 -0.572 0 0 0 
-4.803 -0.51 -0.535 0 0 0 
-4.948 -0.509 -0.506 0 0 0 
-4.932 -0.509 -0.563 0 0 0 
-5.179 -0.509 -0.614 0 0 0 
-5.742 -0.509 -0.723 0 0 0 
-6.138 -0.509 -0.796 0 0 0 
-6.514 -0.509 -1.062 0 0 0 
-7.123 -0.509 -1.253 0 0 0 
-6.966 -0.508 -1.221 0 0 0 
-6.508 -0.508 -1.318 0 0 0 
-7.164 -0.508 -1.192 0 0 0 
-6.818 -0.508 -1.191 0 0 0 
-6.485 -0.508 -0.992 0 0 0 
-6.207 -0.508 -0.809 0 0 0 
-5.812 -0.508 -0.736 0 0 0 
-5.663 -0.508 -0.708 0 0 0 
-5.228 -0.508 -0.624 0 0 0 
-5.021 -0.508 -0.582 0 0 0 
-5.594 -0.508 -0.695 0 0 0 
-5.96 -0.508 -0.764 0 0 0 
-6.681 -0.508 -1.162 0 0 0 
-7.459 -0.508 -2.187 0 0 0 
-7.405 -0.504 -2.463 0 0 0 
-7.372 -0.506 -2.017 0 0 0 
-7.371 -0.506 -1.945 0 0 0 
-7.369 -0.505 -1.873 0 0 0 
-7.364 -0.504 -2.086 0 0 0 
-7.347 -0.501 -1.797 0 0 0 
-7.456 -0.501 -1.683 0 0 0 
-7.447 -0.502 -1.537 0 0 0 
-7.341 -0.506 -2.367 0 0 0 
-6.471 -0.506 -1.247 0 0 0 
-3.844 -0.507 -2.184 0 0 0 
-6.342 -0.507 -1.28 0 0 0 
-6.997 -0.506 -1.159 0 0 0 
-7.047 -0.504 -1.101 0 0 0 
-6.919 -0.504 -1.077 0 0 0 
-6.721 -0.506 -1.105 0 0 0 
-6.613 -0.507 -1.083 0 0 0 
5.747 -0.507 -1.082 0 0 0 
-6.386 -0.506 -0.909 0 0 0 
-6.355 -0.506 -0.837 0 0 0 
-6.276 -0.507 -0.822 0 0 0 
-5.997 -0.507 -0.707 0 0 0 
-5.396 -0.507 -0.658 0 0 0 
-5.067 -0.507 -0.532 0 0 0 
-4.978 -0.507 -0.513 0 0 0 
-5.018 -0.507 -0.522 0 0 0 
-5.337 -0.507 -0.646 0 0 0 
-6.297 -0.507 -0.892 0 0 0 
-6.146 -0.506 -0.733 0 0 0 
-6.067 -0.506 -0.719 0 0 0 
-5.849 -0.506 -0.68 0 0 0 
-5.78 -0.506 -0.668 0 0 0 
-5.146 -0.506 -0.549 0 0 0 
-5.107 -0.506 -0.54 0 0 0 
-5.268 -0.506 -0.633 0 0 0 
-5.918 -0.506 -0.693 0 0 0 
-6.574 -0.506 -1.01 0 0 0 
-6.849 -0.506 -1.131 0 0 0 
-6.8 -0.505 -1.054 0 0 0 
-6.682 -0.505 -1.031 0 0 0 
5.757 -0.504 -1.028 0 0 0 
-6.465 -0.504 -0.924 0 0 0 
-6.424 -0.504 -0.851 0 0 0 
-5.7 -0.505 -0.654 0 0 0 
-5.641 -0.505 -0.643 0 0 0 
-5.995 -0.504 -0.642 0 0 0 
-5.582 -0.505 -0.632 0 0 0 
-5.344 -0.505 -0.588 0 0 0 
-5.186 -0.505 -0.557 0 0 0 
-5.512 -0.505 -0.62 0 0 0 
-5.453 -0.504 -0.609 0 0 0 
-5.394 -0.504 -0.598 0 0 0 
-5.235 -0.504 -0.567 0 0 0 
-5.285 -0.504 -0.577 0 0 0 
-6.195 -0.504 -0.744 0 0 0 
-6.564 -0.504 -0.943 0 0 0 
-7.221 -0.504 -1.275 0 0 0 
-6.679 -0.5 -1.231 0 0 0 
-3.89 -0.503 -2.165 0 0 0 
-7.233 -0.502 -1.208 0 0 0 
-7.274 -0.503 -1.073 0 0 0 
-7.165 -0.503 -1.124 0 0 0 
-7.146 -0.503 -1.05 0 0 0 
-6.264 -0.503 -0.756 0 0 0 
-6.054 -0.503 -0.652 0 0 0 
-5.915 -0.503 -0.629 0 0 0 
-7.018 -0.503 -1.026 0 0 0 
-6.879 -0.502 -1.002 0 0 0 
-7.126 -0.5 -0.976 0 0 0 
-6.78 -0.5 -0.916 0 0 0 
-7.007 -0.5 -0.956 0 0 0 
-6.761 -0.502 -0.98 0 0 0 
-6.652 -0.502 -0.96 0 0 0 
-6.592 -0.501 -0.882 0 0 0 
-6.334 -0.502 -0.769 0 0 0 
-6.114 -0.502 -0.663 0 0 0 
-5.499 -0.502 -0.555 0 0 0 
-5.45 -0.502 -0.546 0 0 0 
-5.252 -0.502 -0.508 0 0 0 
-5.202 -0.502 -0.499 0 0 0 
-5.291 -0.502 -0.517 0 0 0 
-5.608 -0.502 -0.575 0 0 0 
-6.494 -0.502 -0.865 0 0 0 
-6.403 -0.501 -0.782 0 0 0 
-6.233 -0.5 -0.685 0 0 0 
-5.836 -0.501 -0.616 0 0 0 
-5.767 -0.501 -0.604 0 0 0 
-5.648 -0.501 -0.583 0 0 0 
-5.539 -0.501 -0.563 0 0 0 
-5.331 -0.501 -0.525 0 0 0 
-5.38 -0.501 -0.534 0 0 0 
-5.707 -0.501 -0.594 0 0 0 
-6.163 -0.501 -0.673 0 0 0 
-6.681 -0.5 -0.898 0 0 0 
-7.255 -0.5 -0.998 0 0 0 
-7.844 -0.5 -5.119 0 0 0 
-7.658 -0.497 -5.093 0 0 0 
-6.518 -0.488 -5.496 0 0 0 
-6.574 -0.484 -5.446 0 0 0 
-6.808 -0.483 -5.443 0 0 0 
-6.629 -0.479 -5.395 0 0 0 
-7.956 -0.497 -5.093 0 0 0 
-8.005 -0.49 -1.208 0 0 0 
-8.065 -0.487 -1.142 0 0 0 
-7.956 -0.49 -1.122 0 0 0 
-8.036 -0.485 -1.059 0 0 0 
-7.955 -0.483 -3.893 0 0 0 
-8.042 -0.48 -3.009 0 0 0 
-7.954 -0.489 -4.246 0 0 0 
3.065 -0.496 -4.308 0 0 0 
3.436 -0.499 -4.33 0 0 0 
3.373 -0.499 -4.328 0 0 0 
3.549 -0.497 -4.316 0 0 0 
3.181 -0.496 -4.31 0 0 0 
3.293 -0.496 -4.302 0 0 0 
3.237 -0.496 -4.306 0 0 0 
3.613 -0.497 -4.315 0 0 0 
-7.941 -0.493 -3.713 0 0 0 
-7.728 -0.494 -1.158 0 0 0 
-7.896 -0.494 -1.187 0 0 0 
-7.818 -0.491 -1.098 0 0 0 
-7.68 -0.492 -1.075 0 0 0 
-7.672 -0.491 -3.259 0 0 0 
-7.448 -0.499 -2.331 0 0 0 
-7.666 -0.495 -1.663 0 0 0 
-3.779 -0.499 -2.238 0 0 0 
12.038 -0.498 -1.785 0 0 0 
-7.61 -0.496 -1.136 0 0 0 
-7.363 -0.499 -1.09 0 0 0 
-6.879 -0.499 -0.934 0 0 0 
5.757 -0.498 -1.089 0 0 0 
-7.165 -0.497 -0.912 0 0 0 
-7.046 -0.497 -0.893 0 0 0 
-6.641 -0.498 -0.824 0 0 0 
-6.551 -0.498 -0.809 0 0 0 
-6.292 -0.499 -0.696 0 0 0 
-5.575 -0.499 -0.504 0 0 0 
-6.472 -0.499 -0.795 0 0 0 
-5.516 -0.498 -0.495 0 0 0 
-6.947 -0.498 -0.876 0 0 0 
-6.829 -0.497 -0.856 0 0 0 
-6.431 -0.497 -0.72 0 0 0 
-6.19 -0.497 -0.611 0 0 0 
-6.061 -0.497 -0.589 0 0 0 
-5.942 -0.497 -0.569 0 0 0 
-5.764 -0.497 -0.539 0 0 0 
-5.654 -0.497 -0.52 0 0 0 
-6.002 -0.497 -0.579 0 0 0 
-6.342 -0.497 -0.706 0 0 0 
-7.334 -0.497 -1.014 0 0 0 
-7.254 -0.496 -0.928 0 0 0 
-6.72 -0.496 -0.838 0 0 0 
-6.111 -0.496 -0.599 0 0 0 
-5.873 -0.496 -0.558 0 0 0 
-5.704 -0.496 -0.529 0 0 0 
-5.595 -0.496 -0.511 0 0 0 
-5.813 -0.496 -0.548 0 0 0 
-6.24 -0.496 -0.62 0 0 0 
-7.462 -0.496 -1.109 0 0 0 
-7.134 -0.495 -0.835 0 0 0 
-6.48 -0.495 -0.73 0 0 0 
-5.998 -0.495 -0.509 0 0 0 
-7.551 -0.495 -3.286 0 0 0 
-3.882 -0.491 -2.4 0 0 0 
-3.816 -0.494 -2.216 0 0 0 
7.84 -0.492 -2.772 0 0 0 
-7.266 -0.492 -1.708 0 0 0 
-7.432 -0.494 -1.032 0 0 0 
-7.343 -0.493 -0.944 0 0 0 
-7.233 -0.494 -0.851 0 0 0 
-7.551 -0.493 -1.052 0 0 0 
-7.452 -0.492 -0.962 0 0 0 
-7.201 -0.492 -1.276 0 0 0 
5.738 -0.493 -1.029 0 0 0 
-7.015 -0.494 -0.817 0 0 0 
-6.906 -0.493 -0.8 0 0 0 
-6.718 -0.493 -0.77 0 0 0 
-6.639 -0.494 -0.757 0 0 0 
-6.289 -0.494 -0.629 0 0 0 
-6.048 -0.494 -0.518 0 0 0 
-5.939 -0.494 -0.5 0 0 0 
-6.55 -0.494 -0.742 0 0 0 
-6.339 -0.493 -0.639 0 0 0 
-6.147 -0.493 -0.535 0 0 0 
-5.879 -0.493 -0.491 0 0 0 
-6.807 -0.493 -0.785 0 0 0 
-7.175 -0.493 -1.13 0 0 0 
-6.408 -0.492 -0.65 0 0 0 
-6.236 -0.491 -0.552 0 0 0 
-6.078 -0.492 -0.525 0 0 0 
-6.187 -0.491 -0.543 0 0 0 
-7.921 -0.491 -3.962 0 0 0 
-7.474 -0.483 -3.411 0 0 0 
20.932 -0.481 -4.519 0 0 0 
-7.802 -0.487 -3.235 0 0 0 
-7.953 -0.487 -1.808 0 0 0 
-7.937 -0.488 -1.042 0 0 0 
-7.828 -0.49 -1.024 0 0 0 
-7.551 -0.49 -0.979 0 0 0 
-7.68 -0.49 -1.0 0 0 0 
-7.822 -0.487 -2.379 0 0 0 
-7.584 -0.477 -2.232 0 0 0 
-7.891 -0.479 -1.72 0 0 0 
-7.58 -0.486 -0.91 0 0 0 
-7.754 -0.486 -1.686 0 0 0 
-7.689 -0.485 -0.927 0 0 0 
-7.577 -0.477 -0.759 0 0 0 
-7.527 -0.48 -0.75 0 0 0 
-7.506 -0.484 -2.726 0 0 0 
-7.426 -0.489 -2.621 0 0 0 
-7.382 -0.489 -0.878 0 0 0 
-7.456 -0.489 -1.543 0 0 0 
-7.491 -0.488 -0.895 0 0 0 
-7.379 -0.489 -1.88 0 0 0 
-6.679 -0.489 -1.235 0 0 0 
-3.776 -0.489 -2.285 0 0 0 
5.757 -0.489 -1.093 0 0 0 
12.212 -0.49 -1.701 0 0 0 
-6.383 -0.489 -1.235 0 0 0 
-7.293 -0.49 -0.863 0 0 0 
-7.232 -0.489 -0.779 0 0 0 
-6.676 -0.489 -0.695 0 0 0 
-6.607 -0.49 -0.683 0 0 0 
-6.458 -0.49 -0.659 0 0 0 
-6.276 -0.489 -0.559 0 0 0 
-6.517 -0.489 -0.67 0 0 0 
-7.133 -0.489 -0.764 0 0 0 
-7.183 -0.489 -1.204 0 0 0 
-7.023 -0.488 -0.748 0 0 0 
-3.844 -0.488 -2.188 0 0 0 
-6.924 -0.488 -0.733 0 0 0 
-6.756 -0.488 -0.707 0 0 0 
-7.481 -0.488 -2.492 0 0 0 
-7.341 -0.486 -2.372 0 0 0 
-3.77 -0.478 -2.237 0 0 0 
-7.44 -0.487 -2.186 0 0 0 
-7.466 -0.487 -1.689 0 0 0 
-7.505 -0.479 -1.558 0 0 0 
-7.437 -0.476 -1.899 0 0 0 
-6.825 -0.487 -0.719 0 0 0 
-6.375 -0.487 -0.577 0 0 0 
-6.316 -0.487 -0.567 0 0 0 
-7.366 -0.487 -1.806 0 0 0 
-3.881 -0.483 -2.165 0 0 0 
-7.277 -0.48 -2.066 0 0 0 
-7.323 -0.485 -1.936 0 0 0 
-7.351 -0.483 -0.8 0 0 0 
-7.428 -0.48 -0.736 0 0 0 
-7.339 -0.481 -0.723 0 0 0 
-7.315 -0.484 -2.005 0 0 0 
-7.145 -0.482 -1.129 0 0 0 
5.757 -0.486 -1.037 0 0 0 
5.767 -0.48 -1.099 0 0 0 
-7.291 -0.486 -0.79 0 0 0 
-7.279 -0.483 -0.713 0 0 0 
-7.22 -0.486 -0.703 0 0 0 
-6.505 -0.486 -0.597 0 0 0 
-6.425 -0.485 -0.586 0 0 0 
-6.253 -0.486 -0.483 0 0 0 
-7.12 -0.485 -0.689 0 0 0 
-7.021 -0.484 -0.675 0 0 0 
-6.922 -0.483 -0.662 0 0 0 
-6.753 -0.483 -0.637 0 0 0 
-6.614 -0.484 -0.616 0 0 0 
2.445 -0.484 -0.585 0 0 0 
-6.402 -0.484 -0.507 0 0 0 
-6.292 -0.484 -0.49 0 0 0 
-6.554 -0.484 -0.606 0 0 0 
-6.332 -0.483 -0.498 0 0 0 
-6.832 -0.483 -0.649 0 0 0 
-6.673 -0.482 -0.625 0 0 0 
-6.591 -0.48 -0.539 0 0 0 
-6.491 -0.482 -0.523 0 0 0 
-6.432 -0.482 -0.514 0 0 0 
-6.531 -0.48 -0.53 0 0 0 
-7.182 -0.48 -1.276 0 0 0 
-6.679 -0.478 -1.24 0 0 0 
-7.164 -0.477 -1.205 0 0 0 
-6.988 -0.478 -0.598 0 0 0 
-6.909 -0.478 -0.587 0 0 0 
-6.849 -0.479 -0.578 0 0 0 
-6.72 -0.479 -0.558 0 0 0 
-6.65 -0.479 -0.548 0 0 0 
-6.789 -0.479 -0.568 0 0 0 
-7.048 -0.477 -0.607 0 0 0 
-6.354 -0.476 -1.233 0 0 0 
5.747 -0.476 -1.039 0 0 0 
-8.049 -0.476 -5.357 0 0 0 
-6.541 -0.458 -5.718 0 0 0 
-7.889 -0.445 -5.557 0 0 0 
-8.191 -0.465 -3.748 0 0 0 
-8.224 -0.474 -1.644 0 0 0 
-8.219 -0.464 -1.723 0 0 0 
-8.214 -0.474 -1.012 0 0 0 
-8.139 -0.463 -4.349 0 0 0 
-8.235 -0.455 -3.423 0 0 0 
-8.102 -0.459 -0.759 0 0 0 
-8.052 -0.462 -0.751 0 0 0 
-8.036 -0.44 -4.953 0 0 0 
-6.439 -0.443 -5.531 0 0 0 
-7.605 -0.458 -5.158 0 0 0 
-7.866 -0.463 -3.266 0 0 0 
-7.916 -0.462 -1.656 0 0 0 
-7.886 -0.474 -1.645 0 0 0 
-7.908 -0.458 -3.449 0 0 0 
-7.967 -0.45 -2.985 0 0 0 
-7.891 -0.441 -1.581 0 0 0 
-7.841 -0.472 -4.098 0 0 0 
-7.597 -0.469 -3.31 0 0 0 
-7.666 -0.468 -2.636 0 0 0 
-3.924 -0.475 -2.43 0 0 0 
-7.446 -0.471 -2.41 0 0 0 
-7.514 -0.475 -1.704 0 0 0 
-7.613 -0.472 -1.584 0 0 0 
-7.386 -0.472 -1.815 0 0 0 
-7.352 -0.472 -2.306 0 0 0 
-7.145 -0.472 -1.134 0 0 0 
-3.799 -0.473 -2.21 0 0 0 
-7.331 -0.475 -0.803 0 0 0 
-7.058 -0.472 -0.612 0 0 0 
-6.945 -0.474 -0.514 0 0 0 
-6.885 -0.474 -0.506 0 0 0 
-6.825 -0.474 -0.497 0 0 0 
-6.696 -0.474 -0.48 0 0 0 
-6.646 -0.475 -0.472 0 0 0 
-6.756 -0.474 -0.488 0 0 0 
-6.985 -0.472 -0.521 0 0 0 
-7.188 -0.472 -1.694 0 0 0 
-3.784 -0.47 -2.294 0 0 0 
12.084 -0.471 -1.688 0 0 0 
-7.221 -0.471 -1.288 0 0 0 
-7.203 -0.469 -1.215 0 0 0 
5.767 -0.47 -1.103 0 0 0 
2.442 -0.469 -0.566 0 0 0 
-7.005 -0.469 -0.527 0 0 0 
-7.538 -0.469 -2.515 0 0 0 
-3.835 -0.468 -2.187 0 0 0 
-7.303 -0.467 -1.936 0 0 0 
-7.55 -0.468 -0.915 0 0 0 
5.747 -0.467 -1.044 0 0 0 
5.796 -0.467 -0.997 0 0 0 
-7.058 -0.467 -0.616 0 0 0 
-6.669 -0.467 -1.242 0 0 0 
-7.745 -0.467 -3.295 0 0 0 
-7.438 -0.452 -3.399 0 0 0 
-7.358 -0.465 -3.282 0 0 0 
20.932 -0.441 -4.523 0 0 0 
3.044 -0.464 -4.363 0 0 0 
3.059 -0.458 -4.304 0 0 0 
3.424 -0.459 -4.318 0 0 0 
3.549 -0.46 -4.32 0 0 0 
3.361 -0.459 -4.317 0 0 0 
3.181 -0.459 -4.314 0 0 0 
3.48 -0.459 -4.312 0 0 0 
3.606 -0.459 -4.312 0 0 0 
3.237 -0.459 -4.31 0 0 0 
3.293 -0.458 -4.306 0 0 0 
3.108 -0.457 -4.293 0 0 0 
4.663 -0.448 -4.212 0 0 0 
6.588 -0.446 -2.795 0 0 0 
-7.599 -0.466 -2.765 0 0 0 
-7.656 -0.454 -1.526 0 0 0 
-7.699 -0.461 -0.941 0 0 0 
-7.548 -0.461 -1.501 0 0 0 
-7.531 -0.459 -0.916 0 0 0 
-7.493 -0.453 -2.429 0 0 0 
-7.495 -0.444 -1.708 0 0 0 
-7.708 -0.452 -1.171 0 0 0 
-7.481 -0.444 -2.5 0 0 0 
-7.286 -0.465 -2.002 0 0 0 
-7.291 -0.465 -0.802 0 0 0 
-7.015 -0.465 -0.532 0 0 0 
-7.416 -0.465 -2.622 0 0 0 
-7.398 -0.441 -2.619 0 0 0 
-7.369 -0.455 -1.886 0 0 0 
-7.468 -0.464 -0.753 0 0 0 
-7.405 -0.457 -1.824 0 0 0 
-7.392 -0.446 -2.18 0 0 0 
-7.386 -0.44 -1.823 0 0 0 
-7.363 -0.439 -2.244 0 0 0 
-3.95 -0.457 -2.45 0 0 0 
-3.863 -0.462 -2.159 0 0 0 
-3.799 -0.453 -2.214 0 0 0 
-3.784 -0.45 -2.298 0 0 0 
-3.779 -0.46 -2.246 0 0 0 
-3.835 -0.449 -2.191 0 0 0 
-7.239 -0.459 -2.059 0 0 0 
-7.221 -0.46 -1.292 0 0 0 
-7.339 -0.449 -0.744 0 0 0 
-7.282 -0.452 -1.237 0 0 0 
-7.243 -0.461 -1.226 0 0 0 
-7.195 -0.455 -1.15 0 0 0 
-7.271 -0.457 -0.804 0 0 0 
-7.242 -0.448 -0.805 0 0 0 
-7.221 -0.448 -1.296 0 0 0 
-7.169 -0.456 -1.694 0 0 0 
-6.344 -0.464 -1.235 0 0 0 
12.128 -0.457 -1.586 0 0 0 
-7.165 -0.463 -1.141 0 0 0 
-7.058 -0.461 -0.62 0 0 0 
5.757 -0.46 -1.106 0 0 0 
-7.015 -0.46 -0.536 0 0 0 
5.747 -0.458 -1.048 0 0 0 
5.787 -0.457 -0.999 0 0 0 
-7.02 -0.457 -0.455 0 0 0 
-6.689 -0.457 -1.25 0 0 0 
-6.354 -0.454 -1.241 0 0 0 
5.767 -0.451 -1.111 0 0 0 
5.747 -0.448 -1.052 0 0 0 
5.787 -0.448 -1.003 0 0 0 
-7.048 -0.45 -0.627 0 0 0 
-7.12 -0.452 -0.473 0 0 0 
-7.09 -0.454 -0.467 0 0 0 
-7.06 -0.456 -0.461 0 0 0 
-7.15 -0.449 -0.479 0 0 0 
-7.048 -0.455 -0.623 0 0 0 
-7.015 -0.455 -0.54 0 0 0 
2.439 -0.454 -0.547 0 0 0 
-7.024 -0.451 -0.545 0 0 0 
-7.295 -0.448 -2.292 0 0 0 
-3.863 -0.443 -2.163 0 0 0 
-3.779 -0.44 -2.25 0 0 0 
-7.239 -0.441 -2.063 0 0 0 
-7.321 -0.444 -1.247 0 0 0 
-7.279 -0.439 -0.741 0 0 0 
-7.309 -0.442 -0.506 0 0 0 
-7.247 -0.445 -1.995 0 0 0 
-6.699 -0.447 -1.255 0 0 0 
-7.214 -0.446 -1.157 0 0 0 
-7.18 -0.447 -0.485 0 0 0 
-7.015 -0.446 -0.548 0 0 0 
10.892 -0.447 -0.787 0 0 0 
-7.226 -0.446 -1.919 0 0 0 
-7.198 -0.443 -1.705 0 0 0 
-7.21 -0.445 -0.491 0 0 0 
-7.23 -0.441 -0.496 0 0 0 
-7.202 -0.439 -0.804 0 0 0 
-6.354 -0.443 -1.245 0 0 0 
12.128 -0.443 -1.59 0 0 0 
-7.058 -0.445 -0.632 0 0 0 
-7.044 -0.443 -0.554 0 0 0 
-7.068 -0.44 -0.637 0 0 0 
5.747 -0.439 -1.056 0 0 0 
5.777 -0.439 -1.005 0 0 0 
-7.064 -0.439 -0.559 0 0 0 
-7.865 -0.439 -4.943 0 0 0 
-6.457 -0.436 -5.449 0 0 0 
4.64 -0.438 -4.119 0 0 0 
-7.581 -0.437 -3.796 0 0 0 
-7.731 -0.436 -3.787 0 0 0 
-3.966 -0.437 -2.464 0 0 0 
-7.221 -0.437 -1.299 0 0 0 
-7.309 -0.437 -0.51 0 0 0 
-7.254 -0.438 -1.167 0 0 0 
2.435 -0.438 -0.529 0 0 0 
-7.524 -0.437 -2.741 0 0 0 
-7.312 -0.434 -3.265 0 0 0 
-7.515 -0.436 -2.588 0 0 0 
-7.098 -0.436 -0.643 0 0 0 
-7.064 -0.434 -0.563 0 0 0 
-7.147 -0.434 -0.652 0 0 0 
-6.699 -0.436 -1.259 0 0 0 
-6.413 -0.436 -1.26 0 0 0 
-8.284 -0.434 -9.604 0 0 0 
-7.993 -0.426 -9.432 0 0 0 
20.515 -0.427 -9.448 0 0 0 
-7.833 -0.425 -9.409 0 0 0 
20.49 -0.401 -11.002 0 0 0 
20.524 -0.417 -9.236 0 0 0 
-8.23 -0.416 -9.212 0 0 0 
-8.043 -0.433 -3.262 0 0 0 
-7.752 -0.431 -4.056 0 0 0 
-7.841 -0.427 -4.016 0 0 0 
-8.217 -0.424 -3.419 0 0 0 
-7.838 -0.401 -3.022 0 0 0 
-7.829 -0.427 -3.014 0 0 0 
-7.774 -0.421 -1.561 0 0 0 
-7.783 -0.407 -1.567 0 0 0 
-7.969 -0.401 -3.235 0 0 0 
-7.734 -0.404 -5.656 0 0 0 
-4.034 -0.422 -7.821 0 0 0 
20.56 -0.43 -7.984 0 0 0 
31.539 -0.431 -7.998 0 0 0 
24.274 -0.431 -7.993 0 0 0 
23.579 -0.431 -7.992 0 0 0 
22.838 -0.429 -7.964 0 0 0 
22.193 -0.429 -7.957 0 0 0 
-3.919 -0.428 -7.935 0 0 0 
21.278 -0.423 -7.839 0 0 0 
24.658 -0.425 -7.881 0 0 0 
28.017 -0.425 -7.89 0 0 0 
34.898 -0.425 -7.885 0 0 0 
-3.956 -0.422 -7.838 0 0 0 
20.601 -0.42 -7.794 0 0 0 
-7.461 -0.431 -6.883 0 0 0 
-7.491 -0.429 -1.142 0 0 0 
-7.488 -0.43 -3.033 0 0 0 
-6.848 -0.431 -5.381 0 0 0 
-6.497 -0.431 -5.386 0 0 0 
-6.551 -0.427 -5.336 0 0 0 
3.038 -0.425 -4.359 0 0 0 
4.646 -0.431 -4.052 0 0 0 
4.647 -0.425 -4.351 0 0 0 
-6.629 -0.425 -5.303 0 0 0 
3.486 -0.422 -4.323 0 0 0 
3.361 -0.422 -4.32 0 0 0 
3.175 -0.421 -4.31 0 0 0 
3.417 -0.421 -4.314 0 0 0 
3.543 -0.421 -4.316 0 0 0 
4.685 -0.421 -4.31 0 0 0 
4.636 -0.423 -3.972 0 0 0 
3.606 -0.421 -4.316 0 0 0 
-7.341 -0.423 -2.383 0 0 0 
-7.426 -0.433 -0.689 0 0 0 
-7.392 -0.427 -2.183 0 0 0 
-3.835 -0.429 -2.195 0 0 0 
-3.79 -0.433 -2.213 0 0 0 
-3.793 -0.43 -2.307 0 0 0 
-7.265 -0.431 -1.933 0 0 0 
-7.313 -0.432 -1.18 0 0 0 
-7.279 -0.431 -0.511 0 0 0 
-7.272 -0.43 -1.243 0 0 0 
-7.272 -0.433 -1.865 0 0 0 
5.747 -0.43 -1.059 0 0 0 
5.777 -0.43 -1.009 0 0 0 
-7.192 -0.431 -0.807 0 0 0 
-7.267 -0.429 -0.67 0 0 0 
-7.23 -0.429 -0.74 0 0 0 
-7.197 -0.431 -0.66 0 0 0 
-7.074 -0.43 -0.568 0 0 0 
-7.217 -0.429 -1.713 0 0 0 
-6.442 -0.427 -1.27 0 0 0 
12.132 -0.428 -1.483 0 0 0 
-7.074 -0.425 -0.572 0 0 0 
2.441 -0.425 -0.512 0 0 0 
-7.248 -0.425 -2.281 0 0 0 
-7.141 -0.421 -1.97 0 0 0 
-3.855 -0.423 -2.162 0 0 0 
-7.356 -0.423 -1.82 0 0 0 
-7.378 -0.422 -1.685 0 0 0 
-6.689 -0.424 -1.261 0 0 0 
-7.342 -0.423 -1.189 0 0 0 
-7.23 -0.424 -0.512 0 0 0 
-7.23 -0.423 -0.744 0 0 0 
-7.182 -0.423 -1.296 0 0 0 
-6.52 -0.421 -1.289 0 0 0 
5.787 -0.422 -1.014 0 0 0 
5.757 -0.421 -1.065 0 0 0 
-7.162 -0.422 -0.807 0 0 0 
