# .PCD v0.7 - Point Cloud Data file format
VERSION 0.7
FIELDS x y z r g b
SIZE 4 4 4 1 1 1
TYPE F F F I I I 
COUNT 1 1 1 1 1 1
WIDTH 1769
HEIGHT 1
VIEWPOINT 0 0 0 1 0 0 0
POINTS 1769
DATA ascii
-4.087 -0.458 -1.565 0 0 0 
2.14 -0.458 -1.27 0 0 0 
2.141 -0.458 -1.384 0 0 0 
-4.093 -0.458 -1.27 0 0 0 
2.124 -0.461 -1.018 0 0 0 
2.137 -0.461 -1.212 0 0 0 
2.134 -0.459 -1.238 0 0 0 
-4.1 -0.461 -1.018 0 0 0 
-4.1 -0.461 -0.672 0 0 0 
-4.098 -0.459 -0.849 0 0 0 
-4.096 -0.462 -0.803 0 0 0 
2.125 -0.46 -0.993 0 0 0 
2.125 -0.459 -0.968 0 0 0 
2.124 -0.459 -0.814 0 0 0 
2.125 -0.458 -0.866 0 0 0 
2.125 -0.461 -0.89 0 0 0 
2.126 -0.458 -0.943 0 0 0 
2.119 -0.459 -0.736 0 0 0 
2.12 -0.459 -0.633 0 0 0 
2.127 -0.461 -0.712 0 0 0 
2.125 -0.461 -0.686 0 0 0 
2.123 -0.461 -0.659 0 0 0 
-4.102 -0.458 -0.72 0 0 0 
-4.116 -0.459 -0.633 0 0 0 
-4.113 -0.458 -0.586 0 0 0 
2.124 -0.462 -0.581 0 0 0 
2.121 -0.458 -0.556 0 0 0 
-4.119 -0.458 -0.68 0 0 0 
-4.112 -0.44 -0.734 0 0 0 
-4.114 -0.439 -0.778 0 0 0 
-4.112 -0.394 -0.759 0 0 0 
-4.112 -0.4 -0.756 0 0 0 
-4.112 -0.387 -0.763 0 0 0 
-4.112 -0.367 -0.773 0 0 0 
-4.112 -0.373 -0.77 0 0 0 
-4.112 -0.413 -0.749 0 0 0 
-4.112 -0.42 -0.745 0 0 0 
-4.112 -0.446 -0.73 0 0 0 
-4.099 -0.454 -1.105 0 0 0 
-4.085 -0.454 -1.783 0 0 0 
-4.011 -0.455 -4.165 0 0 0 
-3.603 -0.455 -15.295 0 0 0 
-3.321 -0.455 -15.287 0 0 0 
-2.765 -0.455 -15.285 0 0 0 
-3.461 -0.455 -15.287 0 0 0 
-3.85 -0.456 -9.64 0 0 0 
2.171 -0.457 -2.523 0 0 0 
2.194 -0.456 -3.587 0 0 0 
2.212 -0.457 -4.179 0 0 0 
2.257 -0.455 -5.497 0 0 0 
2.281 -0.455 -6.166 0 0 0 
-3.996 -0.455 -4.533 0 0 0 
-4.051 -0.456 -2.515 0 0 0 
-4.068 -0.455 -2.185 0 0 0 
2.153 -0.457 -1.731 0 0 0 
2.152 -0.456 -1.666 0 0 0 
2.166 -0.456 -2.098 0 0 0 
-4.071 -0.455 -2.093 0 0 0 
-4.029 -0.454 -3.567 0 0 0 
-3.967 -0.454 -5.492 0 0 0 
-3.897 -0.453 -8.067 0 0 0 
-3.041 -0.454 -15.284 0 0 0 
-2.897 -0.454 -15.251 0 0 0 
-3.177 -0.454 -15.266 0 0 0 
-2.488 -0.454 -15.272 0 0 0 
-2.349 -0.454 -15.254 0 0 0 
-3.777 -0.454 -11.791 0 0 0 
-2.211 -0.453 -15.244 0 0 0 
-2.618 -0.453 -15.23 0 0 0 
-2.075 -0.453 -15.243 0 0 0 
-3.924 -0.454 -6.991 0 0 0 
2.171 -0.454 -2.389 0 0 0 
2.182 -0.453 -2.941 0 0 0 
2.203 -0.453 -3.828 0 0 0 
2.243 -0.454 -4.957 0 0 0 
-3.955 -0.453 -6.131 0 0 0 
-4.063 -0.454 -2.278 0 0 0 
-4.072 -0.454 -2.002 0 0 0 
-4.091 -0.456 -1.61 0 0 0 
-4.095 -0.456 -1.229 0 0 0 
-4.09 -0.457 -1.059 0 0 0 
2.128 -0.453 -1.292 0 0 0 
2.141 -0.453 -1.329 0 0 0 
2.145 -0.455 -1.506 0 0 0 
2.144 -0.455 -1.416 0 0 0 
2.151 -0.453 -1.602 0 0 0 
2.134 -0.453 -1.159 0 0 0 
2.136 -0.454 -1.133 0 0 0 
2.129 -0.453 -1.103 0 0 0 
2.13 -0.454 -1.077 0 0 0 
2.132 -0.454 -1.052 0 0 0 
2.134 -0.453 -1.001 0 0 0 
-4.097 -0.453 -1.189 0 0 0 
-4.1 -0.454 -0.979 0 0 0 
-4.1 -0.454 -0.937 0 0 0 
2.124 -0.455 -0.842 0 0 0 
2.126 -0.456 -0.919 0 0 0 
-4.096 -0.455 -0.807 0 0 0 
2.121 -0.457 -0.763 0 0 0 
2.122 -0.455 -0.79 0 0 0 
-4.099 -0.454 -0.895 0 0 0 
2.125 -0.453 -0.894 0 0 0 
-4.108 -0.453 -0.855 0 0 0 
-4.106 -0.435 -0.821 0 0 0 
-4.108 -0.422 -0.87 0 0 0 
-4.106 -0.406 -0.836 0 0 0 
-4.106 -0.368 -0.853 0 0 0 
-4.106 -0.383 -0.846 0 0 0 
-4.106 -0.398 -0.84 0 0 0 
-4.106 -0.427 -0.825 0 0 0 
-4.104 -0.424 -0.784 0 0 0 
-4.104 -0.389 -0.802 0 0 0 
-4.104 -0.368 -0.812 0 0 0 
-4.104 -0.375 -0.809 0 0 0 
-4.104 -0.382 -0.805 0 0 0 
-4.104 -0.403 -0.795 0 0 0 
-4.104 -0.417 -0.788 0 0 0 
-4.104 -0.431 -0.78 0 0 0 
-4.104 -0.444 -0.772 0 0 0 
-4.08 -0.452 -1.915 0 0 0 
-4.051 -0.452 -2.773 0 0 0 
2.299 -0.452 -6.956 0 0 0 
2.442 -0.452 -11.73 0 0 0 
-4.029 -0.452 -3.32 0 0 0 
2.156 -0.452 -2.167 0 0 0 
2.173 -0.452 -2.77 0 0 0 
-3.981 -0.452 -4.939 0 0 0 
-4.085 -0.452 -1.652 0 0 0 
2.124 -0.452 -0.818 0 0 0 
2.124 -0.452 -1.022 0 0 0 
2.148 -0.452 -1.449 0 0 0 
-4.1 -0.452 -1.022 0 0 0 
-4.096 -0.445 -1.572 0 0 0 
-4.1 -0.425 -1.034 0 0 0 
-4.1 -0.421 -1.077 0 0 0 
-4.1 -0.399 -1.459 0 0 0 
-4.1 -0.373 -1.094 0 0 0 
-4.1 -0.383 -1.091 0 0 0 
-4.1 -0.37 -1.055 0 0 0 
-4.1 -0.379 -1.052 0 0 0 
-4.1 -0.402 -1.084 0 0 0 
-4.1 -0.416 -1.038 0 0 0 
-4.1 -0.44 -1.069 0 0 0 
-4.098 -0.439 -1.153 0 0 0 
-4.096 -0.417 -1.58 0 0 0 
-4.096 -0.409 -1.497 0 0 0 
-4.096 -0.423 -1.493 0 0 0 
-4.096 -0.436 -1.489 0 0 0 
-4.097 -0.432 -1.197 0 0 0 
-4.098 -0.408 -1.164 0 0 0 
-4.099 -0.405 -1.124 0 0 0 
-4.099 -0.386 -1.131 0 0 0 
-4.098 -0.418 -1.16 0 0 0 
-4.097 -0.414 -1.37 0 0 0 
-4.097 -0.389 -1.211 0 0 0 
-4.097 -0.368 -1.218 0 0 0 
-4.097 -0.4 -1.208 0 0 0 
-4.097 -0.41 -1.204 0 0 0 
-4.099 -0.425 -1.117 0 0 0 
-4.097 -0.438 -1.362 0 0 0 
-4.1 -0.443 -1.026 0 0 0 
-4.1 -0.428 -0.991 0 0 0 
-4.1 -0.393 -1.005 0 0 0 
-4.1 -0.419 -0.995 0 0 0 
-4.1 -0.437 -0.987 0 0 0 
-4.096 -0.449 -1.485 0 0 0 
-4.04 -0.451 -2.928 0 0 0 
-4.016 -0.451 -3.818 0 0 0 
-0.199 -0.451 -15.172 0 0 0 
-0.596 -0.451 -15.162 0 0 0 
2.17 -0.451 -2.618 0 0 0 
2.177 -0.451 -3.106 0 0 0 
2.225 -0.451 -4.489 0 0 0 
-0.729 -0.451 -15.166 0 0 0 
-0.463 -0.45 -15.146 0 0 0 
-0.066 -0.45 -15.143 0 0 0 
-0.33 -0.45 -15.13 0 0 0 
2.188 -0.45 -3.306 0 0 0 
-4.048 -0.45 -2.615 0 0 0 
-4.056 -0.451 -2.371 0 0 0 
2.145 -0.451 -1.361 0 0 0 
2.158 -0.451 -1.838 0 0 0 
2.161 -0.451 -1.911 0 0 0 
2.16 -0.451 -1.772 0 0 0 
2.137 -0.451 -1.216 0 0 0 
2.131 -0.451 -1.185 0 0 0 
2.165 -0.45 -2.257 0 0 0 
2.147 -0.45 -1.539 0 0 0 
2.163 -0.45 -1.985 0 0 0 
-4.094 -0.45 -1.399 0 0 0 
-4.091 -0.441 -1.614 0 0 0 
-4.091 -0.424 -1.448 0 0 0 
-4.094 -0.408 -1.798 0 0 0 
-4.092 -0.406 -1.538 0 0 0 
-4.091 -0.384 -1.629 0 0 0 
-4.092 -0.366 -1.549 0 0 0 
-4.091 -0.367 -1.762 0 0 0 
-4.092 -0.379 -1.545 0 0 0 
-4.091 -0.399 -1.625 0 0 0 
-4.089 -0.402 -1.931 0 0 0 
-4.089 -0.385 -1.934 0 0 0 
-4.089 -0.373 -1.716 0 0 0 
-4.092 -0.393 -1.542 0 0 0 
-4.091 -0.372 -1.462 0 0 0 
-4.091 -0.385 -1.459 0 0 0 
-4.091 -0.411 -1.452 0 0 0 
-4.089 -0.433 -1.702 0 0 0 
-4.091 -0.436 -1.445 0 0 0 
-4.089 -0.449 -1.698 0 0 0 
0.33 -0.449 -15.11 0 0 0 
0.461 -0.449 -15.086 0 0 0 
2.153 -0.449 -1.701 0 0 0 
0.593 -0.449 -15.092 0 0 0 
-4.087 -0.449 -1.83 0 0 0 
-3.992 -0.445 -4.866 0 0 0 
-3.968 -0.398 -5.397 0 0 0 
-3.979 -0.439 -5.31 0 0 0 
-4.0 -0.431 -4.705 0 0 0 
-3.993 -0.389 -4.701 0 0 0 
-4.001 -0.383 -4.628 0 0 0 
-3.992 -0.403 -4.87 0 0 0 
-3.99 -0.395 -4.781 0 0 0 
-4.001 -0.423 -4.625 0 0 0 
-3.996 -0.376 -4.541 0 0 0 
-4.002 -0.37 -4.469 0 0 0 
-3.996 -0.415 -4.537 0 0 0 
-3.99 -0.437 -4.778 0 0 0 
-3.977 -0.431 -5.212 0 0 0 
-3.983 -0.386 -5.223 0 0 0 
-3.973 -0.392 -5.306 0 0 0 
-3.979 -0.424 -5.122 0 0 0 
-3.987 -0.366 -4.954 0 0 0 
-3.987 -0.417 -5.04 0 0 0 
-3.981 -0.409 -4.943 0 0 0 
-3.973 -0.378 -5.118 0 0 0 
-3.981 -0.372 -5.036 0 0 0 
-3.968 -0.446 -5.393 0 0 0 
-3.862 -0.446 -9.43 0 0 0 
0.066 -0.448 -15.073 0 0 0 
0.197 -0.448 -15.072 0 0 0 
0.855 -0.448 -15.049 0 0 0 
0.723 -0.447 -15.046 0 0 0 
0.986 -0.447 -15.041 0 0 0 
1.647 -0.447 -15.033 0 0 0 
1.118 -0.447 -15.032 0 0 0 
1.382 -0.447 -15.03 0 0 0 
1.515 -0.447 -15.037 0 0 0 
1.783 -0.448 -15.058 0 0 0 
2.185 -0.448 -15.066 0 0 0 
2.051 -0.448 -15.064 0 0 0 
1.914 -0.447 -15.042 0 0 0 
2.314 -0.447 -15.026 0 0 0 
2.325 -0.447 -7.965 0 0 0 
-3.679 -0.447 -15.03 0 0 0 
1.245 -0.445 -14.972 0 0 0 
-3.935 -0.446 -6.87 0 0 0 
-3.959 -0.445 -6.022 0 0 0 
-3.789 -0.442 -11.483 0 0 0 
-3.799 -0.431 -11.184 0 0 0 
-3.727 -0.406 -13.665 0 0 0 
-3.743 -0.395 -13.266 0 0 0 
-3.758 -0.371 -12.481 0 0 0 
-3.744 -0.382 -12.84 0 0 0 
-3.717 -0.42 -14.113 0 0 0 
-3.808 -0.42 -10.896 0 0 0 
-3.828 -0.399 -10.369 0 0 0 
-3.844 -0.391 -10.139 0 0 0 
-3.85 -0.371 -9.643 0 0 0 
-3.842 -0.38 -9.872 0 0 0 
-3.818 -0.409 -10.627 0 0 0 
-3.697 -0.433 -14.551 0 0 0 
-3.883 -0.438 -9.249 0 0 0 
-3.911 -0.42 -8.878 0 0 0 
-3.906 -0.41 -8.661 0 0 0 
-3.901 -0.382 -8.079 0 0 0 
-3.901 -0.374 -7.902 0 0 0 
-3.898 -0.4 -8.445 0 0 0 
-3.896 -0.429 -9.058 0 0 0 
-3.895 -0.39 -8.248 0 0 0 
-1.007 -0.374 -7.907 0 0 0 
-1.007 -0.444 -7.904 0 0 0 
2.419 -0.442 -14.848 0 0 0 
2.353 -0.423 -8.926 0 0 0 
2.338 -0.406 -8.567 0 0 0 
2.366 -0.44 -9.304 0 0 0 
2.528 -0.437 -14.708 0 0 0 
2.477 -0.388 -13.041 0 0 0 
2.456 -0.367 -12.343 0 0 0 
2.502 -0.411 -13.829 0 0 0 
2.423 -0.43 -11.152 0 0 0 
2.393 -0.391 -10.155 0 0 0 
2.377 -0.374 -9.706 0 0 0 
2.403 -0.409 -10.614 0 0 0 
-0.472 -0.393 -8.307 0 0 0 
-0.937 -0.374 -7.906 0 0 0 
-0.867 -0.374 -7.904 0 0 0 
-0.657 -0.374 -7.904 0 0 0 
2.334 -0.391 -8.268 0 0 0 
2.328 -0.378 -7.979 0 0 0 
-0.519 -0.374 -7.904 0 0 0 
-0.937 -0.444 -7.902 0 0 0 
-3.901 -0.443 -7.898 0 0 0 
-3.919 -0.427 -7.598 0 0 0 
-3.916 -0.417 -7.431 0 0 0 
-3.925 -0.401 -7.143 0 0 0 
-3.929 -0.393 -7.004 0 0 0 
-3.935 -0.386 -6.874 0 0 0 
-3.919 -0.409 -7.282 0 0 0 
-3.911 -0.435 -7.748 0 0 0 
-3.907 -0.367 -7.742 0 0 0 
-3.934 -0.437 -6.732 0 0 0 
-3.962 -0.428 -5.803 0 0 0 
-3.961 -0.384 -5.916 0 0 0 
-3.962 -0.377 -5.807 0 0 0 
-3.967 -0.371 -5.707 0 0 0 
-3.959 -0.391 -6.025 0 0 0 
-3.967 -0.421 -5.703 0 0 0 
-3.967 -0.406 -5.496 0 0 0 
-3.965 -0.413 -5.595 0 0 0 
-3.956 -0.436 -5.904 0 0 0 
-3.942 -0.43 -6.612 0 0 0 
-3.937 -0.371 -6.607 0 0 0 
-3.929 -0.378 -6.727 0 0 0 
-3.943 -0.421 -6.484 0 0 0 
-3.954 -0.406 -6.254 0 0 0 
-3.955 -0.399 -6.135 0 0 0 
-3.952 -0.414 -6.373 0 0 0 
-0.867 -0.444 -7.9 0 0 0 
-0.727 -0.443 -7.894 0 0 0 
-0.657 -0.443 -7.89 0 0 0 
-0.587 -0.443 -7.886 0 0 0 
-0.518 -0.443 -7.891 0 0 0 
2.24 -0.443 -4.838 0 0 0 
2.255 -0.443 -5.358 0 0 0 
-0.796 -0.443 -7.898 0 0 0 
-0.796 -0.374 -7.901 0 0 0 
-0.727 -0.374 -7.898 0 0 0 
-0.588 -0.374 -7.899 0 0 0 
2.271 -0.441 -5.978 0 0 0 
2.31 -0.417 -7.428 0 0 0 
2.305 -0.404 -7.189 0 0 0 
2.295 -0.379 -6.75 0 0 0 
2.295 -0.39 -6.95 0 0 0 
2.317 -0.432 -7.687 0 0 0 
2.295 -0.438 -6.747 0 0 0 
2.229 -0.421 -4.601 0 0 0 
2.236 -0.4 -4.833 0 0 0 
2.231 -0.39 -4.714 0 0 0 
2.225 -0.372 -4.496 0 0 0 
2.229 -0.381 -4.605 0 0 0 
2.238 -0.41 -4.952 0 0 0 
2.225 -0.411 -4.492 0 0 0 
2.239 -0.433 -4.729 0 0 0 
2.242 -0.43 -5.201 0 0 0 
2.269 -0.43 -5.819 0 0 0 
2.288 -0.367 -6.542 0 0 0 
2.288 -0.425 -6.538 0 0 0 
2.242 -0.384 -5.205 0 0 0 
2.243 -0.375 -5.084 0 0 0 
2.243 -0.366 -4.965 0 0 0 
2.247 -0.421 -5.09 0 0 0 
2.264 -0.418 -5.66 0 0 0 
2.284 -0.413 -6.349 0 0 0 
2.251 -0.395 -5.353 0 0 0 
2.261 -0.407 -5.51 0 0 0 
2.281 -0.401 -6.17 0 0 0 
2.275 -0.389 -5.991 0 0 0 
2.264 -0.368 -5.663 0 0 0 
2.269 -0.378 -5.822 0 0 0 
-4.002 -0.448 -4.461 0 0 0 
-4.056 -0.447 -2.47 0 0 0 
-4.082 -0.446 -1.524 0 0 0 
-4.072 -0.446 -2.049 0 0 0 
-4.07 -0.446 -2.141 0 0 0 
-4.066 -0.445 -2.233 0 0 0 
-4.081 -0.445 -1.963 0 0 0 
-4.046 -0.434 -2.99 0 0 0 
-4.048 -0.374 -2.945 0 0 0 
-4.044 -0.374 -3.166 0 0 0 
-4.048 -0.426 -2.938 0 0 0 
-4.05 -0.393 -2.889 0 0 0 
-4.044 -0.441 -3.043 0 0 0 
-4.04 -0.437 -3.213 0 0 0 
-4.04 -0.409 -3.216 0 0 0 
-4.042 -0.388 -3.28 0 0 0 
-4.037 -0.371 -3.398 0 0 0 
-4.036 -0.394 -3.334 0 0 0 
-4.037 -0.401 -3.157 0 0 0 
-4.036 -0.424 -3.33 0 0 0 
-4.035 -0.416 -3.27 0 0 0 
-4.037 -0.429 -3.153 0 0 0 
-4.042 -0.418 -2.879 0 0 0 
-4.04 -0.395 -3.103 0 0 0 
-4.04 -0.4 -2.935 0 0 0 
-4.042 -0.367 -2.886 0 0 0 
-4.04 -0.422 -3.1 0 0 0 
-4.036 -0.414 -3.041 0 0 0 
-4.038 -0.38 -2.991 0 0 0 
-4.036 -0.387 -3.044 0 0 0 
-4.033 -0.367 -3.101 0 0 0 
-4.038 -0.407 -2.988 0 0 0 
-4.042 -0.443 -2.876 0 0 0 
-4.079 -0.442 -1.872 0 0 0 
-4.073 -0.442 -1.737 0 0 0 
-4.054 -0.442 -2.57 0 0 0 
-4.061 -0.439 -2.425 0 0 0 
-4.059 -0.434 -2.524 0 0 0 
-4.063 -0.434 -2.281 0 0 0 
-4.056 -0.426 -2.474 0 0 0 
-4.051 -0.403 -2.781 0 0 0 
-4.051 -0.386 -2.836 0 0 0 
-4.051 -0.379 -2.784 0 0 0 
-4.051 -0.411 -2.833 0 0 0 
-4.059 -0.421 -2.731 0 0 0 
-4.056 -0.409 -2.378 0 0 0 
-4.059 -0.39 -2.531 0 0 0 
-4.056 -0.382 -2.481 0 0 0 
-4.061 -0.375 -2.435 0 0 0 
-4.056 -0.368 -2.385 0 0 0 
-4.052 -0.396 -2.427 0 0 0 
-4.052 -0.417 -2.423 0 0 0 
-4.051 -0.367 -2.53 0 0 0 
-4.051 -0.428 -2.777 0 0 0 
-4.056 -0.43 -2.375 0 0 0 
-4.077 -0.418 -2.197 0 0 0 
-4.072 -0.395 -2.294 0 0 0 
-4.066 -0.386 -2.244 0 0 0 
-4.066 -0.367 -2.247 0 0 0 
-4.066 -0.406 -2.241 0 0 0 
-4.068 -0.379 -2.199 0 0 0 
-4.068 -0.398 -2.196 0 0 0 
-4.066 -0.425 -2.237 0 0 0 
-4.06 -0.422 -2.33 0 0 0 
-4.051 -0.38 -2.332 0 0 0 
-4.063 -0.374 -2.292 0 0 0 
-4.051 -0.401 -2.328 0 0 0 
-4.063 -0.414 -2.285 0 0 0 
-4.051 -0.436 -2.829 0 0 0 
-4.068 -0.436 -2.189 0 0 0 
-4.079 -0.409 -2.153 0 0 0 
-4.079 -0.372 -2.16 0 0 0 
-4.079 -0.391 -2.156 0 0 0 
-4.079 -0.428 -2.149 0 0 0 
-4.071 -0.419 -2.101 0 0 0 
-4.071 -0.382 -2.108 0 0 0 
-4.071 -0.4 -2.104 0 0 0 
-4.051 -0.441 -2.321 0 0 0 
-4.049 -0.436 -2.67 0 0 0 
-4.05 -0.396 -2.729 0 0 0 
-4.049 -0.388 -2.678 0 0 0 
-4.049 -0.412 -2.674 0 0 0 
-4.048 -0.404 -2.623 0 0 0 
-4.042 -0.371 -2.727 0 0 0 
-4.048 -0.381 -2.626 0 0 0 
-4.048 -0.427 -2.619 0 0 0 
-4.048 -0.403 -2.472 0 0 0 
-4.045 -0.374 -2.575 0 0 0 
-4.045 -0.396 -2.572 0 0 0 
-4.048 -0.388 -2.377 0 0 0 
-4.045 -0.419 -2.568 0 0 0 
-4.043 -0.411 -2.517 0 0 0 
-4.071 -0.437 -2.097 0 0 0 
-4.085 -0.437 -1.656 0 0 0 
-4.088 -0.393 -1.888 0 0 0 
-4.088 -0.426 -1.88 0 0 0 
-4.085 -0.423 -1.66 0 0 0 
-4.085 -0.423 -1.791 0 0 0 
-4.087 -0.384 -1.844 0 0 0 
-4.087 -0.401 -1.841 0 0 0 
-4.087 -0.417 -1.837 0 0 0 
-4.087 -0.402 -1.58 0 0 0 
-4.085 -0.375 -1.801 0 0 0 
-4.085 -0.391 -1.798 0 0 0 
-4.085 -0.379 -1.671 0 0 0 
-4.087 -0.375 -1.587 0 0 0 
-4.085 -0.394 -1.667 0 0 0 
-4.085 -0.408 -1.664 0 0 0 
-4.087 -0.43 -1.573 0 0 0 
-4.087 -0.382 -1.5 0 0 0 
-4.087 -0.369 -1.504 0 0 0 
-4.087 -0.395 -1.497 0 0 0 
-4.085 -0.438 -1.787 0 0 0 
-4.072 -0.436 -2.006 0 0 0 
-4.081 -0.428 -1.966 0 0 0 
-4.081 -0.375 -2.068 0 0 0 
-4.081 -0.411 -2.061 0 0 0 
-4.081 -0.393 -1.974 0 0 0 
-4.081 -0.411 -1.97 0 0 0 
-4.081 -0.429 -2.057 0 0 0 
-4.072 -0.419 -2.009 0 0 0 
-4.072 -0.392 -2.06 0 0 0 
-4.072 -0.366 -2.02 0 0 0 
-4.072 -0.383 -2.016 0 0 0 
-4.08 -0.368 -1.933 0 0 0 
-4.072 -0.375 -1.973 0 0 0 
-4.063 -0.4 -2.008 0 0 0 
-4.08 -0.418 -1.923 0 0 0 
-4.08 -0.435 -1.919 0 0 0 
-4.082 -0.432 -1.527 0 0 0 
-4.082 -0.397 -1.752 0 0 0 
-4.082 -0.382 -1.755 0 0 0 
-4.082 -0.413 -1.748 0 0 0 
-4.079 -0.409 -1.88 0 0 0 
-4.079 -0.376 -1.887 0 0 0 
-4.078 -0.367 -1.844 0 0 0 
-4.082 -0.428 -1.745 0 0 0 
-4.082 -0.419 -1.531 0 0 0 
-4.082 -0.369 -1.628 0 0 0 
-4.082 -0.412 -1.618 0 0 0 
-4.082 -0.426 -1.614 0 0 0 
-4.079 -0.418 -1.702 0 0 0 
-4.079 -0.388 -1.709 0 0 0 
-4.079 -0.403 -1.706 0 0 0 
-4.078 -0.432 -1.83 0 0 0 
-4.077 -0.388 -1.58 0 0 0 
-4.042 -0.443 -2.716 0 0 0 
-4.033 -0.448 -3.09 0 0 0 
2.167 -0.448 -2.475 0 0 0 
2.194 -0.447 -3.518 0 0 0 
2.21 -0.447 -4.089 0 0 0 
2.163 -0.448 -2.059 0 0 0 
2.151 -0.448 -1.482 0 0 0 
2.152 -0.447 -1.636 0 0 0 
-4.005 -0.447 -4.087 0 0 0 
-4.027 -0.429 -3.632 0 0 0 
-4.026 -0.392 -3.902 0 0 0 
-4.026 -0.426 -3.898 0 0 0 
-4.03 -0.415 -3.51 0 0 0 
-4.029 -0.391 -3.574 0 0 0 
-4.03 -0.384 -3.513 0 0 0 
-4.029 -0.422 -3.571 0 0 0 
-4.024 -0.419 -3.829 0 0 0 
-4.021 -0.378 -3.763 0 0 0 
-4.021 -0.411 -3.76 0 0 0 
-4.027 -0.366 -3.639 0 0 0 
-4.027 -0.398 -3.636 0 0 0 
-4.024 -0.372 -3.701 0 0 0 
-4.021 -0.444 -3.756 0 0 0 
2.196 -0.442 -3.74 0 0 0 
-4.001 -0.402 -4.386 0 0 0 
-3.995 -0.408 -4.458 0 0 0 
2.223 -0.441 -4.389 0 0 0 
2.219 -0.401 -4.384 0 0 0 
-4.001 -0.44 -4.382 0 0 0 
-4.017 -0.436 -3.687 0 0 0 
-4.02 -0.398 -3.965 0 0 0 
-4.013 -0.369 -4.031 0 0 0 
-4.013 -0.405 -4.028 0 0 0 
-4.013 -0.432 -3.954 0 0 0 
-4.017 -0.404 -3.691 0 0 0 
-4.016 -0.384 -3.826 0 0 0 
-4.013 -0.44 -4.024 0 0 0 
2.213 -0.438 -4.009 0 0 0 
2.199 -0.434 -3.67 0 0 0 
-4.005 -0.433 -4.311 0 0 0 
-3.998 -0.394 -4.307 0 0 0 
2.216 -0.43 -4.281 0 0 0 
2.216 -0.392 -4.285 0 0 0 
-4.008 -0.426 -4.24 0 0 0 
-4.011 -0.419 -4.169 0 0 0 
2.212 -0.42 -4.183 0 0 0 
2.215 -0.412 -4.102 0 0 0 
2.209 -0.429 -3.92 0 0 0 
2.194 -0.416 -3.521 0 0 0 
2.194 -0.425 -3.591 0 0 0 
2.203 -0.419 -3.832 0 0 0 
-4.005 -0.411 -4.091 0 0 0 
-4.001 -0.388 -4.236 0 0 0 
-4.005 -0.375 -4.094 0 0 0 
-4.004 -0.381 -4.165 0 0 0 
2.201 -0.41 -3.753 0 0 0 
2.21 -0.375 -4.097 0 0 0 
2.208 -0.367 -4.007 0 0 0 
2.216 -0.384 -4.195 0 0 0 
2.208 -0.402 -4.004 0 0 0 
2.194 -0.393 -3.595 0 0 0 
2.194 -0.385 -3.525 0 0 0 
2.199 -0.402 -3.674 0 0 0 
2.204 -0.393 -3.915 0 0 0 
2.208 -0.386 -3.844 0 0 0 
2.201 -0.377 -3.756 0 0 0 
2.204 -0.37 -3.685 0 0 0 
-4.022 -0.445 -3.499 0 0 0 
-4.03 -0.438 -3.445 0 0 0 
-4.03 -0.401 -3.388 0 0 0 
-4.03 -0.377 -3.452 0 0 0 
-4.03 -0.408 -3.449 0 0 0 
-4.03 -0.43 -3.384 0 0 0 
-4.032 -0.38 -3.214 0 0 0 
-4.027 -0.444 -3.26 0 0 0 
2.165 -0.445 -2.342 0 0 0 
2.149 -0.445 -1.573 0 0 0 
2.161 -0.445 -2.134 0 0 0 
2.179 -0.445 -2.728 0 0 0 
2.176 -0.426 -2.937 0 0 0 
2.176 -0.388 -3.054 0 0 0 
2.176 -0.415 -3.051 0 0 0 
2.173 -0.381 -2.995 0 0 0 
2.173 -0.407 -2.991 0 0 0 
2.176 -0.4 -2.941 0 0 0 
2.176 -0.374 -2.944 0 0 0 
2.176 -0.442 -3.047 0 0 0 
2.189 -0.442 -3.246 0 0 0 
2.188 -0.407 -3.443 0 0 0 
2.198 -0.379 -3.464 0 0 0 
2.188 -0.437 -3.44 0 0 0 
2.177 -0.423 -3.11 0 0 0 
2.177 -0.396 -3.114 0 0 0 
2.178 -0.393 -2.89 0 0 0 
2.178 -0.368 -2.893 0 0 0 
2.178 -0.419 -2.886 0 0 0 
2.179 -0.435 -2.996 0 0 0 
2.184 -0.433 -3.178 0 0 0 
2.186 -0.369 -3.378 0 0 0 
2.191 -0.4 -3.383 0 0 0 
2.186 -0.429 -3.371 0 0 0 
2.184 -0.405 -3.182 0 0 0 
2.188 -0.392 -3.314 0 0 0 
2.183 -0.37 -3.125 0 0 0 
2.188 -0.421 -3.31 0 0 0 
2.189 -0.413 -3.25 0 0 0 
2.189 -0.385 -3.253 0 0 0 
2.189 -0.378 -3.193 0 0 0 
2.178 -0.444 -2.883 0 0 0 
2.156 -0.442 -1.873 0 0 0 
2.145 -0.442 -1.51 0 0 0 
2.156 -0.433 -2.171 0 0 0 
2.158 -0.382 -2.221 0 0 0 
2.158 -0.402 -2.218 0 0 0 
2.158 -0.421 -2.214 0 0 0 
2.154 -0.369 -2.142 0 0 0 
2.156 -0.375 -2.181 0 0 0 
2.158 -0.44 -2.21 0 0 0 
2.159 -0.407 -1.954 0 0 0 
2.159 -0.373 -1.961 0 0 0 
2.159 -0.39 -1.957 0 0 0 
2.159 -0.441 -1.946 0 0 0 
2.145 -0.44 -1.729 0 0 0 
2.152 -0.433 -1.64 0 0 0 
2.151 -0.394 -1.811 0 0 0 
2.153 -0.381 -1.75 0 0 0 
2.153 -0.396 -1.746 0 0 0 
2.153 -0.427 -1.739 0 0 0 
2.151 -0.425 -1.61 0 0 0 
2.145 -0.41 -1.736 0 0 0 
2.152 -0.39 -1.651 0 0 0 
2.152 -0.367 -1.688 0 0 0 
2.152 -0.382 -1.685 0 0 0 
2.152 -0.375 -1.654 0 0 0 
2.152 -0.397 -1.681 0 0 0 
2.152 -0.404 -1.647 0 0 0 
2.152 -0.412 -1.678 0 0 0 
2.152 -0.419 -1.644 0 0 0 
2.143 -0.409 -1.608 0 0 0 
2.151 -0.397 -1.617 0 0 0 
2.151 -0.368 -1.624 0 0 0 
2.151 -0.383 -1.621 0 0 0 
2.152 -0.426 -1.674 0 0 0 
2.153 -0.419 -1.708 0 0 0 
2.153 -0.374 -1.719 0 0 0 
2.153 -0.389 -1.715 0 0 0 
2.153 -0.404 -1.712 0 0 0 
2.153 -0.434 -1.705 0 0 0 
2.156 -0.393 -1.884 0 0 0 
2.151 -0.439 -1.606 0 0 0 
2.145 -0.428 -1.513 0 0 0 
2.147 -0.382 -1.557 0 0 0 
2.147 -0.368 -1.561 0 0 0 
2.147 -0.409 -1.55 0 0 0 
2.147 -0.423 -1.547 0 0 0 
2.145 -0.375 -1.528 0 0 0 
2.147 -0.437 -1.543 0 0 0 
2.156 -0.428 -1.462 0 0 0 
2.149 -0.403 -1.584 0 0 0 
2.149 -0.375 -1.591 0 0 0 
2.149 -0.417 -1.58 0 0 0 
2.153 -0.416 -1.523 0 0 0 
2.151 -0.395 -1.497 0 0 0 
2.153 -0.39 -1.53 0 0 0 
2.151 -0.369 -1.504 0 0 0 
2.151 -0.382 -1.5 0 0 0 
2.153 -0.403 -1.526 0 0 0 
2.155 -0.397 -1.56 0 0 0 
2.151 -0.408 -1.493 0 0 0 
2.151 -0.422 -1.49 0 0 0 
2.148 -0.375 -1.471 0 0 0 
2.148 -0.413 -1.461 0 0 0 
2.156 -0.402 -1.47 0 0 0 
2.156 -0.389 -1.473 0 0 0 
2.153 -0.369 -1.447 0 0 0 
2.153 -0.381 -1.444 0 0 0 
2.156 -0.441 -1.459 0 0 0 
2.158 -0.435 -1.842 0 0 0 
2.159 -0.436 -1.492 0 0 0 
2.157 -0.433 -1.582 0 0 0 
2.159 -0.38 -1.821 0 0 0 
2.158 -0.37 -1.856 0 0 0 
2.159 -0.411 -1.814 0 0 0 
2.159 -0.427 -1.811 0 0 0 
2.157 -0.391 -1.593 0 0 0 
2.159 -0.443 -1.807 0 0 0 
2.16 -0.443 -1.676 0 0 0 
2.172 -0.436 -2.671 0 0 0 
2.167 -0.419 -2.717 0 0 0 
2.173 -0.379 -2.781 0 0 0 
2.173 -0.372 -2.731 0 0 0 
2.173 -0.396 -2.728 0 0 0 
2.172 -0.412 -2.675 0 0 0 
2.166 -0.387 -2.67 0 0 0 
2.17 -0.381 -2.629 0 0 0 
2.17 -0.405 -2.625 0 0 0 
2.173 -0.428 -2.774 0 0 0 
2.179 -0.411 -2.836 0 0 0 
2.179 -0.387 -2.839 0 0 0 
2.179 -0.404 -2.786 0 0 0 
2.17 -0.428 -2.622 0 0 0 
2.168 -0.397 -2.576 0 0 0 
2.168 -0.374 -2.579 0 0 0 
2.168 -0.42 -2.572 0 0 0 
2.179 -0.436 -2.832 0 0 0 
2.168 -0.442 -2.569 0 0 0 
2.16 -0.44 -2.02 0 0 0 
2.161 -0.426 -2.138 0 0 0 
2.161 -0.407 -2.142 0 0 0 
2.161 -0.404 -2.475 0 0 0 
2.16 -0.389 -1.787 0 0 0 
2.16 -0.373 -1.79 0 0 0 
2.16 -0.404 -1.783 0 0 0 
2.161 -0.401 -1.922 0 0 0 
2.161 -0.389 -2.145 0 0 0 
2.161 -0.384 -1.925 0 0 0 
2.161 -0.417 -1.918 0 0 0 
2.16 -0.42 -1.78 0 0 0 
2.161 -0.434 -1.915 0 0 0 
2.163 -0.433 -1.988 0 0 0 
2.163 -0.412 -2.067 0 0 0 
2.163 -0.396 -2.185 0 0 0 
2.163 -0.376 -2.074 0 0 0 
2.163 -0.394 -2.07 0 0 0 
2.163 -0.415 -2.181 0 0 0 
2.163 -0.43 -2.063 0 0 0 
2.163 -0.398 -1.996 0 0 0 
2.163 -0.38 -1.999 0 0 0 
2.163 -0.415 -1.992 0 0 0 
2.16 -0.436 -1.776 0 0 0 
2.163 -0.44 -2.427 0 0 0 
2.166 -0.438 -2.102 0 0 0 
2.165 -0.438 -2.301 0 0 0 
2.165 -0.367 -2.53 0 0 0 
2.165 -0.412 -2.523 0 0 0 
2.171 -0.391 -2.535 0 0 0 
2.165 -0.434 -2.52 0 0 0 
2.164 -0.427 -1.883 0 0 0 
2.164 -0.411 -2.39 0 0 0 
2.164 -0.377 -1.894 0 0 0 
2.164 -0.411 -1.887 0 0 0 
2.164 -0.432 -2.386 0 0 0 
2.172 -0.431 -2.268 0 0 0 
2.167 -0.383 -2.486 0 0 0 
2.167 -0.427 -2.479 0 0 0 
2.165 -0.425 -2.345 0 0 0 
2.165 -0.418 -2.305 0 0 0 
2.165 -0.39 -2.268 0 0 0 
2.165 -0.377 -2.312 0 0 0 
2.165 -0.371 -2.272 0 0 0 
2.165 -0.397 -2.309 0 0 0 
2.165 -0.41 -2.265 0 0 0 
2.165 -0.387 -1.859 0 0 0 
2.165 -0.404 -1.856 0 0 0 
2.166 -0.401 -2.109 0 0 0 
2.166 -0.383 -2.113 0 0 0 
2.166 -0.42 -2.106 0 0 0 
2.165 -0.42 -1.852 0 0 0 
2.166 -0.426 -1.957 0 0 0 
2.167 -0.423 -2.031 0 0 0 
2.169 -0.377 -2.445 0 0 0 
2.169 -0.398 -2.441 0 0 0 
2.169 -0.42 -2.438 0 0 0 
2.167 -0.405 -2.035 0 0 0 
2.171 -0.37 -2.404 0 0 0 
2.171 -0.392 -2.4 0 0 0 
2.167 -0.37 -2.041 0 0 0 
2.167 -0.388 -2.038 0 0 0 
2.172 -0.385 -2.36 0 0 0 
2.169 -0.368 -1.935 0 0 0 
2.172 -0.406 -2.356 0 0 0 
-4.091 -0.449 -1.441 0 0 0 
-4.093 -0.447 -1.274 0 0 0 
-4.093 -0.436 -1.278 0 0 0 
-4.091 -0.402 -1.329 0 0 0 
-4.091 -0.366 -1.339 0 0 0 
-4.091 -0.378 -1.336 0 0 0 
-4.091 -0.39 -1.333 0 0 0 
-4.091 -0.413 -1.326 0 0 0 
-4.091 -0.425 -1.322 0 0 0 
-4.095 -0.412 -1.244 0 0 0 
-4.095 -0.368 -1.258 0 0 0 
-4.095 -0.401 -1.248 0 0 0 
-4.095 -0.423 -1.241 0 0 0 
-4.093 -0.424 -1.281 0 0 0 
-4.093 -0.39 -1.292 0 0 0 
-4.093 -0.368 -1.299 0 0 0 
-4.093 -0.379 -1.295 0 0 0 
-4.093 -0.402 -1.289 0 0 0 
-4.093 -0.413 -1.285 0 0 0 
-4.091 -0.436 -1.318 0 0 0 
-4.095 -0.445 -1.233 0 0 0 
-4.091 -0.41 -0.996 0 0 0 
-4.091 -0.397 -1.042 0 0 0 
-4.091 -0.388 -1.046 0 0 0 
-4.091 -0.406 -1.039 0 0 0 
-4.091 -0.383 -1.007 0 0 0 
-4.091 -0.374 -1.01 0 0 0 
-4.091 -0.401 -1.0 0 0 0 
-4.091 -0.433 -1.028 0 0 0 
-4.091 -0.448 -1.314 0 0 0 
-4.088 -0.449 -1.355 0 0 0 
-4.089 -0.448 -1.146 0 0 0 
2.134 -0.448 -1.242 0 0 0 
-4.09 -0.448 -1.063 0 0 0 
2.138 -0.445 -1.111 0 0 0 
2.136 -0.444 -1.137 0 0 0 
-4.088 -0.425 -1.363 0 0 0 
-4.085 -0.399 -1.411 0 0 0 
-4.085 -0.374 -1.418 0 0 0 
-4.085 -0.387 -1.415 0 0 0 
-4.085 -0.412 -1.408 0 0 0 
-4.085 -0.424 -1.404 0 0 0 
-4.088 -0.389 -1.374 0 0 0 
-4.088 -0.377 -1.377 0 0 0 
-4.088 -0.401 -1.37 0 0 0 
-4.085 -0.436 -1.4 0 0 0 
2.136 -0.432 -1.304 0 0 0 
2.136 -0.42 -1.308 0 0 0 
2.136 -0.443 -1.301 0 0 0 
-4.087 -0.441 -1.19 0 0 0 
-4.089 -0.428 -1.154 0 0 0 
-4.087 -0.378 -1.212 0 0 0 
-4.086 -0.378 -1.252 0 0 0 
-4.086 -0.389 -1.249 0 0 0 
-4.087 -0.42 -1.198 0 0 0 
-4.09 -0.395 -1.125 0 0 0 
-4.09 -0.375 -1.132 0 0 0 
-4.09 -0.414 -1.118 0 0 0 
-4.089 -0.397 -1.165 0 0 0 
-4.089 -0.366 -1.175 0 0 0 
-4.089 -0.377 -1.172 0 0 0 
-4.089 -0.387 -1.168 0 0 0 
-4.086 -0.433 -1.234 0 0 0 
2.134 -0.437 -1.246 0 0 0 
2.129 -0.417 -1.223 0 0 0 
2.129 -0.395 -1.23 0 0 0 
2.129 -0.428 -1.219 0 0 0 
2.134 -0.426 -1.25 0 0 0 
2.131 -0.423 -1.277 0 0 0 
2.134 -0.415 -1.254 0 0 0 
2.131 -0.399 -1.204 0 0 0 
2.134 -0.381 -1.185 0 0 0 
2.134 -0.391 -1.181 0 0 0 
2.134 -0.401 -1.178 0 0 0 
2.134 -0.412 -1.174 0 0 0 
2.134 -0.422 -1.171 0 0 0 
2.134 -0.432 -1.167 0 0 0 
2.127 -0.422 -1.14 0 0 0 
2.13 -0.367 -1.11 0 0 0 
-4.09 -0.434 -1.11 0 0 0 
2.134 -0.443 -1.163 0 0 0 
2.14 -0.442 -1.194 0 0 0 
2.14 -0.413 -1.285 0 0 0 
2.14 -0.39 -1.292 0 0 0 
2.137 -0.375 -1.242 0 0 0 
2.14 -0.368 -1.299 0 0 0 
2.14 -0.379 -1.296 0 0 0 
2.137 -0.386 -1.238 0 0 0 
2.14 -0.402 -1.289 0 0 0 
2.137 -0.408 -1.231 0 0 0 
2.14 -0.436 -1.278 0 0 0 
2.137 -0.44 -1.22 0 0 0 
2.136 -0.414 -1.148 0 0 0 
2.136 -0.384 -1.159 0 0 0 
2.136 -0.374 -1.162 0 0 0 
2.136 -0.394 -1.155 0 0 0 
2.136 -0.404 -1.152 0 0 0 
2.136 -0.434 -1.141 0 0 0 
2.138 -0.436 -1.115 0 0 0 
2.14 -0.432 -1.198 0 0 0 
2.138 -0.416 -1.123 0 0 0 
2.14 -0.379 -1.215 0 0 0 
2.14 -0.368 -1.219 0 0 0 
2.14 -0.39 -1.212 0 0 0 
2.14 -0.411 -1.205 0 0 0 
2.138 -0.396 -1.13 0 0 0 
2.138 -0.366 -1.14 0 0 0 
2.138 -0.376 -1.136 0 0 0 
2.138 -0.386 -1.133 0 0 0 
2.138 -0.406 -1.126 0 0 0 
2.14 -0.421 -1.201 0 0 0 
2.138 -0.426 -1.119 0 0 0 
2.139 -0.379 -1.111 0 0 0 
2.14 -0.447 -1.274 0 0 0 
2.141 -0.446 -1.388 0 0 0 
2.153 -0.419 -1.433 0 0 0 
2.153 -0.394 -1.44 0 0 0 
2.153 -0.407 -1.437 0 0 0 
2.153 -0.432 -1.43 0 0 0 
2.153 -0.444 -1.426 0 0 0 
2.141 -0.434 -1.392 0 0 0 
2.141 -0.394 -1.347 0 0 0 
2.141 -0.429 -1.336 0 0 0 
2.141 -0.441 -1.332 0 0 0 
2.145 -0.439 -1.365 0 0 0 
2.149 -0.411 -1.404 0 0 0 
2.149 -0.374 -1.415 0 0 0 
2.149 -0.386 -1.411 0 0 0 
2.149 -0.398 -1.408 0 0 0 
2.145 -0.378 -1.383 0 0 0 
2.145 -0.366 -1.386 0 0 0 
2.145 -0.39 -1.379 0 0 0 
2.149 -0.423 -1.401 0 0 0 
2.154 -0.416 -1.377 0 0 0 
2.154 -0.404 -1.381 0 0 0 
2.145 -0.427 -1.368 0 0 0 
2.145 -0.41 -1.317 0 0 0 
2.149 -0.372 -1.359 0 0 0 
2.149 -0.384 -1.356 0 0 0 
2.149 -0.407 -1.349 0 0 0 
2.143 -0.395 -1.266 0 0 0 
2.143 -0.372 -1.273 0 0 0 
2.142 -0.372 -1.193 0 0 0 
2.143 -0.383 -1.269 0 0 0 
2.143 -0.406 -1.262 0 0 0 
2.145 -0.399 -1.321 0 0 0 
2.145 -0.376 -1.327 0 0 0 
2.145 -0.387 -1.324 0 0 0 
2.149 -0.419 -1.345 0 0 0 
-4.09 -0.444 -1.106 0 0 0 
2.125 -0.443 -1.001 0 0 0 
-4.09 -0.391 -1.085 0 0 0 
-4.09 -0.41 -1.078 0 0 0 
2.13 -0.425 -1.089 0 0 0 
2.13 -0.387 -1.103 0 0 0 
2.13 -0.406 -1.096 0 0 0 
2.13 -0.416 -1.092 0 0 0 
-4.09 -0.429 -1.071 0 0 0 
2.125 -0.425 -0.983 0 0 0 
2.125 -0.399 -0.994 0 0 0 
2.125 -0.39 -0.998 0 0 0 
2.125 -0.407 -1.016 0 0 0 
2.125 -0.416 -0.987 0 0 0 
2.125 -0.425 -1.008 0 0 0 
2.13 -0.444 -1.081 0 0 0 
2.133 -0.445 -1.03 0 0 0 
2.132 -0.445 -1.056 0 0 0 
2.132 -0.426 -1.063 0 0 0 
2.132 -0.398 -1.074 0 0 0 
2.132 -0.37 -1.084 0 0 0 
2.132 -0.407 -1.071 0 0 0 
2.139 -0.398 -1.104 0 0 0 
2.132 -0.417 -1.067 0 0 0 
2.133 -0.371 -1.059 0 0 0 
2.139 -0.437 -1.089 0 0 0 
2.141 -0.39 -1.082 0 0 0 
2.141 -0.381 -1.085 0 0 0 
2.142 -0.382 -1.06 0 0 0 
2.132 -0.436 -1.059 0 0 0 
2.133 -0.418 -1.042 0 0 0 
2.133 -0.436 -1.034 0 0 0 
2.134 -0.436 -1.009 0 0 0 
2.142 -0.401 -1.053 0 0 0 
2.142 -0.392 -1.057 0 0 0 
2.142 -0.41 -1.05 0 0 0 
2.142 -0.428 -1.042 0 0 0 
2.134 -0.409 -0.995 0 0 0 
2.134 -0.391 -1.027 0 0 0 
2.134 -0.373 -1.034 0 0 0 
2.134 -0.382 -1.03 0 0 0 
2.134 -0.4 -1.024 0 0 0 
2.134 -0.374 -1.009 0 0 0 
2.134 -0.383 -1.005 0 0 0 
2.134 -0.418 -1.016 0 0 0 
-4.1 -0.445 -0.983 0 0 0 
-4.1 -0.43 -0.949 0 0 0 
-4.1 -0.387 -0.966 0 0 0 
-4.1 -0.37 -0.973 0 0 0 
-4.1 -0.379 -0.97 0 0 0 
-4.1 -0.396 -0.963 0 0 0 
-4.1 -0.421 -0.952 0 0 0 
-4.1 -0.446 -0.941 0 0 0 
-4.089 -0.445 -0.896 0 0 0 
2.135 -0.451 -0.951 0 0 0 
2.125 -0.451 -0.87 0 0 0 
2.116 -0.449 -0.968 0 0 0 
2.126 -0.448 -0.922 0 0 0 
2.125 -0.445 -0.898 0 0 0 
2.124 -0.448 -0.846 0 0 0 
-4.096 -0.448 -0.811 0 0 0 
2.13 -0.446 -0.774 0 0 0 
2.132 -0.45 -0.798 0 0 0 
-4.098 -0.444 -0.857 0 0 0 
-4.089 -0.437 -0.9 0 0 0 
-4.09 -0.437 -0.942 0 0 0 
-4.099 -0.406 -0.917 0 0 0 
-4.099 -0.373 -0.931 0 0 0 
-4.099 -0.39 -0.924 0 0 0 
-4.099 -0.398 -0.921 0 0 0 
-4.099 -0.422 -0.91 0 0 0 
2.125 -0.433 -0.98 0 0 0 
-4.089 -0.413 -0.912 0 0 0 
2.125 -0.43 -0.906 0 0 0 
-4.09 -0.412 -0.954 0 0 0 
-4.09 -0.403 -0.957 0 0 0 
-4.089 -0.381 -0.925 0 0 0 
2.125 -0.397 -0.92 0 0 0 
2.125 -0.373 -0.93 0 0 0 
-4.099 -0.43 -0.906 0 0 0 
-4.098 -0.406 -0.875 0 0 0 
-4.098 -0.383 -0.886 0 0 0 
-4.098 -0.367 -0.892 0 0 0 
-4.098 -0.375 -0.889 0 0 0 
-4.098 -0.39 -0.882 0 0 0 
-4.098 -0.398 -0.879 0 0 0 
2.116 -0.433 -0.874 0 0 0 
2.125 -0.428 -0.881 0 0 0 
2.125 -0.396 -0.896 0 0 0 
2.125 -0.42 -0.885 0 0 0 
2.124 -0.372 -0.882 0 0 0 
2.124 -0.387 -0.875 0 0 0 
2.125 -0.442 -0.976 0 0 0 
2.126 -0.441 -0.951 0 0 0 
2.126 -0.431 -0.93 0 0 0 
2.126 -0.373 -0.98 0 0 0 
2.126 -0.415 -0.938 0 0 0 
2.126 -0.432 -0.955 0 0 0 
2.135 -0.426 -0.963 0 0 0 
2.135 -0.409 -0.97 0 0 0 
2.135 -0.4 -0.949 0 0 0 
2.135 -0.383 -0.98 0 0 0 
2.135 -0.392 -0.977 0 0 0 
2.135 -0.375 -0.959 0 0 0 
2.135 -0.383 -0.956 0 0 0 
2.135 -0.366 -0.962 0 0 0 
2.135 -0.392 -0.952 0 0 0 
2.135 -0.4 -0.974 0 0 0 
2.135 -0.408 -0.945 0 0 0 
2.135 -0.417 -0.966 0 0 0 
2.135 -0.425 -0.938 0 0 0 
2.135 -0.383 -0.931 0 0 0 
2.135 -0.391 -0.928 0 0 0 
2.126 -0.439 -0.926 0 0 0 
2.135 -0.423 -0.913 0 0 0 
2.135 -0.407 -0.921 0 0 0 
2.134 -0.39 -0.903 0 0 0 
2.134 -0.374 -0.91 0 0 0 
2.134 -0.382 -0.907 0 0 0 
2.134 -0.406 -0.896 0 0 0 
2.135 -0.415 -0.917 0 0 0 
2.134 -0.414 -0.893 0 0 0 
2.134 -0.381 -0.882 0 0 0 
2.134 -0.396 -0.875 0 0 0 
2.135 -0.439 -0.906 0 0 0 
2.125 -0.443 -0.874 0 0 0 
-4.096 -0.441 -0.815 0 0 0 
-4.098 -0.436 -0.861 0 0 0 
-4.098 -0.413 -0.872 0 0 0 
-4.098 -0.429 -0.864 0 0 0 
-4.096 -0.412 -0.83 0 0 0 
-4.096 -0.375 -0.848 0 0 0 
-4.096 -0.39 -0.841 0 0 0 
-4.096 -0.419 -0.827 0 0 0 
-4.095 -0.409 -0.789 0 0 0 
-4.095 -0.395 -0.796 0 0 0 
2.114 -0.443 -0.818 0 0 0 
2.122 -0.441 -0.798 0 0 0 
2.124 -0.425 -0.857 0 0 0 
2.124 -0.37 -0.858 0 0 0 
2.124 -0.378 -0.855 0 0 0 
2.124 -0.433 -0.854 0 0 0 
2.134 -0.419 -0.865 0 0 0 
2.134 -0.404 -0.872 0 0 0 
2.134 -0.412 -0.868 0 0 0 
2.133 -0.387 -0.855 0 0 0 
2.124 -0.44 -0.85 0 0 0 
2.122 -0.434 -0.802 0 0 0 
2.124 -0.415 -0.837 0 0 0 
2.124 -0.393 -0.848 0 0 0 
2.124 -0.408 -0.841 0 0 0 
2.124 -0.423 -0.833 0 0 0 
2.124 -0.43 -0.83 0 0 0 
2.122 -0.391 -0.824 0 0 0 
2.122 -0.383 -0.827 0 0 0 
2.121 -0.367 -0.81 0 0 0 
2.121 -0.374 -0.807 0 0 0 
2.122 -0.398 -0.82 0 0 0 
2.124 -0.437 -0.826 0 0 0 
2.13 -0.439 -0.778 0 0 0 
2.13 -0.425 -0.786 0 0 0 
2.132 -0.407 -0.82 0 0 0 
2.132 -0.37 -0.838 0 0 0 
2.132 -0.378 -0.834 0 0 0 
2.132 -0.414 -0.817 0 0 0 
2.132 -0.421 -0.813 0 0 0 
2.13 -0.411 -0.793 0 0 0 
2.13 -0.397 -0.8 0 0 0 
2.13 -0.383 -0.807 0 0 0 
2.13 -0.39 -0.804 0 0 0 
2.13 -0.404 -0.797 0 0 0 
2.129 -0.373 -0.787 0 0 0 
2.129 -0.38 -0.784 0 0 0 
2.13 -0.418 -0.789 0 0 0 
2.132 -0.428 -0.809 0 0 0 
2.133 -0.402 -0.848 0 0 0 
2.13 -0.432 -0.782 0 0 0 
2.129 -0.401 -0.773 0 0 0 
2.129 -0.387 -0.78 0 0 0 
2.129 -0.394 -0.777 0 0 0 
2.129 -0.407 -0.77 0 0 0 
-4.104 -0.451 -0.768 0 0 0 
-4.102 -0.432 -0.736 0 0 0 
-4.102 -0.426 -0.74 0 0 0 
-4.102 -0.379 -0.764 0 0 0 
-4.102 -0.406 -0.751 0 0 0 
-4.109 -0.382 -0.722 0 0 0 
-4.109 -0.37 -0.729 0 0 0 
-4.109 -0.376 -0.726 0 0 0 
-4.109 -0.389 -0.719 0 0 0 
-4.102 -0.451 -0.724 0 0 0 
2.119 -0.452 -0.74 0 0 0 
2.121 -0.45 -0.767 0 0 0 
2.127 -0.442 -0.724 0 0 0 
2.127 -0.384 -0.757 0 0 0 
2.127 -0.377 -0.76 0 0 0 
2.127 -0.37 -0.763 0 0 0 
2.127 -0.39 -0.753 0 0 0 
2.119 -0.432 -0.752 0 0 0 
2.127 -0.43 -0.732 0 0 0 
2.118 -0.395 -0.747 0 0 0 
2.127 -0.417 -0.739 0 0 0 
2.127 -0.404 -0.746 0 0 0 
2.127 -0.41 -0.743 0 0 0 
2.125 -0.399 -0.723 0 0 0 
2.125 -0.38 -0.734 0 0 0 
2.125 -0.367 -0.74 0 0 0 
2.125 -0.374 -0.737 0 0 0 
2.125 -0.387 -0.73 0 0 0 
2.125 -0.393 -0.727 0 0 0 
2.125 -0.406 -0.72 0 0 0 
2.127 -0.423 -0.736 0 0 0 
2.127 -0.436 -0.728 0 0 0 
2.127 -0.449 -0.72 0 0 0 
2.129 -0.448 -0.747 0 0 0 
2.129 -0.421 -0.762 0 0 0 
2.129 -0.414 -0.766 0 0 0 
2.129 -0.428 -0.759 0 0 0 
2.129 -0.441 -0.751 0 0 0 
-4.119 -0.396 -0.717 0 0 0 
-4.116 -0.448 -0.641 0 0 0 
-4.116 -0.425 -0.656 0 0 0 
-4.116 -0.366 -0.691 0 0 0 
-4.116 -0.378 -0.684 0 0 0 
-4.116 -0.39 -0.677 0 0 0 
-4.116 -0.384 -0.681 0 0 0 
-4.116 -0.436 -0.648 0 0 0 
-4.116 -0.442 -0.644 0 0 0 
-4.116 -0.374 -0.556 0 0 0 
-4.116 -0.369 -0.559 0 0 0 
-4.116 -0.453 -0.637 0 0 0 
2.118 -0.457 -0.607 0 0 0 
2.12 -0.454 -0.637 0 0 0 
2.127 -0.455 -0.716 0 0 0 
2.125 -0.455 -0.69 0 0 0 
2.123 -0.455 -0.663 0 0 0 
2.127 -0.454 -0.614 0 0 0 
-4.113 -0.453 -0.59 0 0 0 
2.121 -0.453 -0.56 0 0 0 
2.124 -0.456 -0.585 0 0 0 
-4.109 -0.45 -0.682 0 0 0 
2.125 -0.443 -0.697 0 0 0 
-4.109 -0.426 -0.698 0 0 0 
-4.109 -0.42 -0.701 0 0 0 
-4.109 -0.408 -0.709 0 0 0 
-4.109 -0.401 -0.712 0 0 0 
-4.109 -0.414 -0.705 0 0 0 
-4.109 -0.432 -0.694 0 0 0 
2.125 -0.437 -0.701 0 0 0 
2.125 -0.412 -0.716 0 0 0 
2.123 -0.37 -0.714 0 0 0 
2.123 -0.376 -0.711 0 0 0 
2.123 -0.383 -0.707 0 0 0 
2.125 -0.425 -0.709 0 0 0 
2.125 -0.431 -0.705 0 0 0 
2.12 -0.366 -0.691 0 0 0 
2.123 -0.401 -0.697 0 0 0 
2.123 -0.389 -0.704 0 0 0 
-4.109 -0.438 -0.69 0 0 0 
-4.107 -0.371 -0.686 0 0 0 
2.125 -0.449 -0.694 0 0 0 
2.132 -0.421 -0.689 0 0 0 
2.134 -0.42 -0.716 0 0 0 
2.132 -0.409 -0.697 0 0 0 
2.132 -0.397 -0.704 0 0 0 
2.13 -0.374 -0.691 0 0 0 
2.132 -0.415 -0.693 0 0 0 
-4.109 -0.445 -0.686 0 0 0 
-4.113 -0.442 -0.598 0 0 0 
-4.113 -0.437 -0.602 0 0 0 
-4.113 -0.426 -0.61 0 0 0 
-4.113 -0.393 -0.631 0 0 0 
-4.113 -0.371 -0.645 0 0 0 
-4.113 -0.382 -0.638 0 0 0 
-4.113 -0.388 -0.635 0 0 0 
-4.113 -0.404 -0.624 0 0 0 
-4.113 -0.415 -0.617 0 0 0 
-4.113 -0.41 -0.621 0 0 0 
-4.113 -0.421 -0.613 0 0 0 
-4.113 -0.431 -0.606 0 0 0 
-4.113 -0.447 -0.594 0 0 0 
2.123 -0.449 -0.667 0 0 0 
2.115 -0.449 -0.586 0 0 0 
2.121 -0.448 -0.564 0 0 0 
2.12 -0.448 -0.641 0 0 0 
2.12 -0.443 -0.645 0 0 0 
-4.107 -0.412 -0.662 0 0 0 
-4.107 -0.407 -0.665 0 0 0 
-4.107 -0.395 -0.672 0 0 0 
-4.107 -0.418 -0.658 0 0 0 
2.12 -0.414 -0.664 0 0 0 
2.123 -0.425 -0.683 0 0 0 
2.12 -0.42 -0.66 0 0 0 
-4.097 -0.4 -0.667 0 0 0 
2.12 -0.378 -0.685 0 0 0 
2.12 -0.384 -0.681 0 0 0 
-4.107 -0.43 -0.651 0 0 0 
-4.103 -0.376 -0.64 0 0 0 
-4.103 -0.398 -0.626 0 0 0 
2.12 -0.437 -0.649 0 0 0 
2.118 -0.436 -0.623 0 0 0 
2.121 -0.37 -0.618 0 0 0 
2.123 -0.443 -0.671 0 0 0 
2.127 -0.443 -0.622 0 0 0 
2.13 -0.427 -0.659 0 0 0 
2.127 -0.415 -0.641 0 0 0 
2.127 -0.41 -0.645 0 0 0 
2.124 -0.37 -0.643 0 0 0 
2.127 -0.404 -0.648 0 0 0 
2.127 -0.375 -0.665 0 0 0 
2.127 -0.392 -0.655 0 0 0 
2.127 -0.381 -0.662 0 0 0 
2.127 -0.369 -0.669 0 0 0 
2.127 -0.387 -0.659 0 0 0 
2.127 -0.398 -0.652 0 0 0 
2.124 -0.376 -0.64 0 0 0 
2.124 -0.381 -0.636 0 0 0 
2.127 -0.421 -0.637 0 0 0 
2.13 -0.41 -0.67 0 0 0 
2.13 -0.392 -0.681 0 0 0 
2.13 -0.398 -0.678 0 0 0 
2.13 -0.404 -0.674 0 0 0 
2.127 -0.426 -0.634 0 0 0 
2.124 -0.387 -0.633 0 0 0 
2.124 -0.392 -0.63 0 0 0 
2.13 -0.433 -0.656 0 0 0 
2.132 -0.439 -0.678 0 0 0 
2.132 -0.433 -0.682 0 0 0 
2.127 -0.432 -0.63 0 0 0 
2.124 -0.414 -0.615 0 0 0 
2.124 -0.398 -0.626 0 0 0 
2.124 -0.403 -0.623 0 0 0 
2.124 -0.409 -0.619 0 0 0 
2.118 -0.446 -0.615 0 0 0 
2.121 -0.443 -0.568 0 0 0 
-4.11 -0.425 -0.564 0 0 0 
-4.11 -0.41 -0.575 0 0 0 
-4.11 -0.415 -0.572 0 0 0 
-4.11 -0.42 -0.568 0 0 0 
2.124 -0.441 -0.597 0 0 0 
2.124 -0.42 -0.612 0 0 0 
2.124 -0.425 -0.608 0 0 0 
2.121 -0.397 -0.601 0 0 0 
2.121 -0.386 -0.608 0 0 0 
2.121 -0.375 -0.614 0 0 0 
2.121 -0.381 -0.611 0 0 0 
2.121 -0.392 -0.604 0 0 0 
2.124 -0.43 -0.604 0 0 0 
2.124 -0.436 -0.6 0 0 0 
2.121 -0.428 -0.579 0 0 0 
2.121 -0.413 -0.59 0 0 0 
2.121 -0.418 -0.586 0 0 0 
2.121 -0.407 -0.594 0 0 0 
2.118 -0.385 -0.583 0 0 0 
2.118 -0.375 -0.589 0 0 0 
2.118 -0.38 -0.586 0 0 0 
2.118 -0.395 -0.576 0 0 0 
2.121 -0.402 -0.597 0 0 0 
2.118 -0.405 -0.569 0 0 0 
2.121 -0.423 -0.583 0 0 0 
2.118 -0.41 -0.565 0 0 0 
2.121 -0.438 -0.571 0 0 0 
2.124 -0.38 -0.564 0 0 0 
2.124 -0.385 -0.561 0 0 0 
2.124 -0.375 -0.567 0 0 0 
2.124 -0.37 -0.571 0 0 0 
-4.11 -0.43 -0.56 0 0 0 
-4.106 -0.378 -0.551 0 0 0 
2.118 -0.43 -0.55 0 0 0 
2.118 -0.42 -0.558 0 0 0 
2.124 -0.394 -0.554 0 0 0 
2.124 -0.389 -0.557 0 0 0 
2.124 -0.446 -0.593 0 0 0 
2.131 -0.435 -0.578 0 0 0 
2.127 -0.402 -0.575 0 0 0 
2.127 -0.366 -0.599 0 0 0 
2.127 -0.392 -0.582 0 0 0 
2.127 -0.371 -0.595 0 0 0 
2.127 -0.417 -0.564 0 0 0 
2.127 -0.427 -0.557 0 0 0 
-4.12 -0.445 -0.55 0 0 0 
-4.12 -0.46 -0.538 0 0 0 
2.127 -0.46 -0.529 0 0 0 
2.114 -0.457 -0.499 0 0 0 
-4.11 -0.454 -0.541 0 0 0 
-4.106 -0.383 -0.548 0 0 0 
-4.106 -0.388 -0.545 0 0 0 
2.124 -0.404 -0.547 0 0 0 
2.118 -0.435 -0.547 0 0 0 
2.114 -0.397 -0.548 0 0 0 
2.12 -0.368 -0.546 0 0 0 
-4.11 -0.449 -0.545 0 0 0 
2.118 -0.453 -0.531 0 0 0 
2.114 -0.453 -0.503 0 0 0 
2.118 -0.449 -0.535 0 0 0 
-4.116 -0.431 -0.514 0 0 0 
-4.116 -0.412 -0.528 0 0 0 
-4.116 -0.408 -0.532 0 0 0 
-4.116 -0.417 -0.525 0 0 0 
-4.116 -0.426 -0.517 0 0 0 
2.114 -0.439 -0.515 0 0 0 
2.114 -0.421 -0.53 0 0 0 
-4.106 -0.393 -0.541 0 0 0 
-4.106 -0.397 -0.538 0 0 0 
2.114 -0.412 -0.537 0 0 0 
2.114 -0.407 -0.541 0 0 0 
2.114 -0.416 -0.534 0 0 0 
-4.096 -0.401 -0.533 0 0 0 
2.114 -0.426 -0.526 0 0 0 
-4.106 -0.421 -0.52 0 0 0 
2.114 -0.435 -0.519 0 0 0 
2.118 -0.439 -0.543 0 0 0 
2.116 -0.369 -0.519 0 0 0 
-4.112 -0.372 -0.512 0 0 0 
-4.112 -0.367 -0.515 0 0 0 
2.114 -0.444 -0.511 0 0 0 
-4.106 -0.439 -0.505 0 0 0 
2.111 -0.421 -0.502 0 0 0 
-4.112 -0.389 -0.499 0 0 0 
-4.112 -0.385 -0.502 0 0 0 
-4.102 -0.375 -0.508 0 0 0 
-4.112 -0.381 -0.506 0 0 0 
2.114 -0.448 -0.507 0 0 0 
2.116 -0.396 -0.499 0 0 0 
2.116 -0.383 -0.509 0 0 0 
2.116 -0.392 -0.502 0 0 0 
2.116 -0.388 -0.505 0 0 0 
2.118 -0.444 -0.539 0 0 0 
2.124 -0.432 -0.525 0 0 0 
2.12 -0.427 -0.501 0 0 0 
2.12 -0.405 -0.519 0 0 0 
2.12 -0.401 -0.522 0 0 0 
2.12 -0.377 -0.54 0 0 0 
2.12 -0.372 -0.543 0 0 0 
2.12 -0.382 -0.536 0 0 0 
2.12 -0.391 -0.529 0 0 0 
2.12 -0.387 -0.533 0 0 0 
2.12 -0.396 -0.526 0 0 0 
2.126 -0.38 -0.515 0 0 0 
2.126 -0.376 -0.518 0 0 0 
2.12 -0.41 -0.515 0 0 0 
2.12 -0.419 -0.508 0 0 0 
2.12 -0.414 -0.512 0 0 0 
-4.123 -0.366 -0.649 0 0 0 
-4.12 -0.353 -0.614 0 0 0 
-4.12 -0.281 -0.65 0 0 0 
-4.12 -0.326 -0.629 0 0 0 
-4.12 -0.32 -0.631 0 0 0 
-4.12 -0.292 -0.645 0 0 0 
-4.12 -0.205 -0.678 0 0 0 
-4.124 0.982 -0.882 0 0 0 
-4.124 1.25 -0.938 0 0 0 
-4.124 1.241 -0.949 0 0 0 
-4.122 0.962 -0.96 0 0 0 
-4.122 1.019 -0.899 0 0 0 
-4.122 1.118 -0.969 0 0 0 
-4.122 1.184 -0.889 0 0 0 
-4.122 1.035 -0.881 0 0 0 
-4.122 1.199 -0.868 0 0 0 
-4.122 1.207 -0.857 0 0 0 
-4.122 1.214 -0.846 0 0 0 
-4.122 1.065 -0.844 0 0 0 
-4.124 1.02 -0.838 0 0 0 
-4.124 0.514 -0.733 0 0 0 
-4.124 0.533 -0.72 0 0 0 
-4.124 0.545 -0.71 0 0 0 
-4.124 1.089 -0.745 0 0 0 
-4.124 1.115 -0.707 0 0 0 
-4.124 1.121 -0.697 0 0 0 
-4.124 1.076 -0.764 0 0 0 
-4.122 0.235 -0.824 0 0 0 
-4.122 1.087 -0.816 0 0 0 
-4.122 1.094 -0.806 0 0 0 
-4.123 0.192 -0.721 0 0 0 
-4.123 0.204 -0.717 0 0 0 
-4.123 0.179 -0.724 0 0 0 
-4.122 0.486 -0.707 0 0 0 
-4.122 0.498 -0.698 0 0 0 
-4.122 1.128 -0.758 0 0 0 
-4.122 1.148 -0.728 0 0 0 
-4.122 1.154 -0.718 0 0 0 
-4.122 1.161 -0.707 0 0 0 
-4.122 1.122 -0.767 0 0 0 
-4.122 1.222 -0.836 0 0 0 
-4.122 1.229 -0.825 0 0 0 
-4.122 1.255 -1.188 0 0 0 
-4.122 1.326 -1.109 0 0 0 
-4.123 2.603 -1.748 0 0 0 
-4.125 2.809 -18.011 0 0 0 
-4.123 2.819 -1.618 0 0 0 
-4.123 2.296 -1.427 0 0 0 
-4.123 1.357 -1.331 0 0 0 
-4.125 1.359 -1.137 0 0 0 
-4.123 1.447 -1.232 0 0 0 
-4.123 1.458 -1.22 0 0 0 
-4.125 1.427 -1.052 0 0 0 
-4.125 1.472 -0.988 0 0 0 
-4.125 1.612 -1.166 0 0 0 
-4.125 2.17 -1.147 0 0 0 
-4.125 1.632 -1.138 0 0 0 
-4.125 1.878 -0.993 0 0 0 
-4.125 1.861 -1.025 0 0 0 
-4.125 2.218 -1.051 0 0 0 
-4.125 2.227 -1.031 0 0 0 
-4.125 2.245 -0.992 0 0 0 
-4.125 2.236 -1.011 0 0 0 
-4.125 2.209 -1.07 0 0 0 
-4.125 1.408 -1.076 0 0 0 
-4.123 1.479 -1.194 0 0 0 
-4.123 1.489 -1.181 0 0 0 
-4.124 1.556 -1.168 0 0 0 
-4.123 1.53 -1.128 0 0 0 
-4.123 1.55 -1.101 0 0 0 
-4.123 1.559 -1.087 0 0 0 
-4.124 1.566 -1.154 0 0 0 
-4.123 1.578 -1.059 0 0 0 
-4.123 1.587 -1.046 0 0 0 
-4.124 1.605 -1.098 0 0 0 
-4.123 1.931 -1.086 0 0 0 
-4.124 1.615 -1.084 0 0 0 
-4.124 1.643 -1.041 0 0 0 
-4.124 1.909 -1.031 0 0 0 
-4.124 1.927 -0.997 0 0 0 
-4.124 1.67 -0.998 0 0 0 
-4.123 1.623 -0.989 0 0 0 
-4.123 1.949 -1.052 0 0 0 
-4.123 1.967 -1.018 0 0 0 
-4.123 1.976 -1.001 0 0 0 
-4.123 1.958 -1.035 0 0 0 
-4.124 2.139 -0.99 0 0 0 
-4.123 1.94 -1.069 0 0 0 
-4.123 1.569 -1.073 0 0 0 
-4.123 1.54 -1.114 0 0 0 
-4.123 1.436 -1.245 0 0 0 
-4.122 1.373 -1.05 0 0 0 
-4.122 1.4 -1.013 0 0 0 
-4.122 1.409 -1.001 0 0 0 
-4.122 1.418 -0.989 0 0 0 
-4.122 1.355 -1.074 0 0 0 
-4.124 1.316 -0.988 0 0 0 
-4.124 1.282 -0.894 0 0 0 
-4.125 1.505 -0.936 0 0 0 
-4.125 1.513 -0.923 0 0 0 
-4.125 1.751 -0.945 0 0 0 
-4.125 1.759 -0.93 0 0 0 
-4.125 1.895 -0.96 0 0 0 
-4.125 1.904 -0.943 0 0 0 
-4.125 1.92 -0.909 0 0 0 
-4.125 1.734 -0.976 0 0 0 
-4.125 1.521 -0.909 0 0 0 
-4.125 1.783 -0.883 0 0 0 
-4.125 1.928 -0.893 0 0 0 
-4.125 1.529 -0.896 0 0 0 
-4.125 1.497 -0.949 0 0 0 
-4.124 1.704 -0.939 0 0 0 
-4.124 1.728 -0.894 0 0 0 
-4.124 1.936 -0.98 0 0 0 
-4.124 1.944 -0.963 0 0 0 
-4.124 2.156 -0.952 0 0 0 
-4.124 1.953 -0.946 0 0 0 
-4.124 2.164 -0.934 0 0 0 
-4.124 1.961 -0.929 0 0 0 
-4.124 1.977 -0.894 0 0 0 
-4.124 2.18 -0.895 0 0 0 
-4.124 1.969 -0.912 0 0 0 
-4.124 1.29 -0.882 0 0 0 
-4.124 1.375 -0.742 0 0 0 
-4.125 1.943 -0.859 0 0 0 
-4.125 1.936 -0.876 0 0 0 
-4.124 1.735 -0.879 0 0 0 
-4.124 1.743 -0.863 0 0 0 
-4.124 1.985 -0.877 0 0 0 
-4.124 1.992 -0.859 0 0 0 
-4.124 1.405 -0.856 0 0 0 
-4.124 1.427 -0.819 0 0 0 
-4.124 1.388 -0.718 0 0 0 
-4.124 1.394 -0.706 0 0 0 
-4.124 1.381 -0.73 0 0 0 
-4.124 1.434 -0.807 0 0 0 
-4.125 1.574 -0.814 0 0 0 
-4.125 1.588 -0.787 0 0 0 
-4.125 1.951 -0.841 0 0 0 
-4.125 1.965 -0.807 0 0 0 
-4.125 1.958 -0.824 0 0 0 
-4.125 1.567 -0.828 0 0 0 
-4.124 1.758 -0.833 0 0 0 
-4.124 2.0 -0.842 0 0 0 
-4.124 2.007 -0.824 0 0 0 
-4.124 1.455 -0.769 0 0 0 
-4.124 1.461 -0.756 0 0 0 
-4.125 1.602 -0.759 0 0 0 
-4.125 1.841 -0.756 0 0 0 
-4.125 1.608 -0.745 0 0 0 
-4.124 1.474 -0.73 0 0 0 
-4.124 1.481 -0.717 0 0 0 
-4.124 1.468 -0.743 0 0 0 
-4.124 1.42 -0.832 0 0 0 
-4.124 1.368 -0.754 0 0 0 
-4.124 1.35 -0.941 0 0 0 
-4.122 1.257 -0.781 0 0 0 
-4.122 1.264 -0.77 0 0 0 
-4.122 1.427 -0.976 0 0 0 
-4.122 1.435 -0.963 0 0 0 
-4.122 1.46 -0.925 0 0 0 
-4.122 1.468 -0.913 0 0 0 
-4.122 1.476 -0.9 0 0 0 
-4.122 1.491 -0.874 0 0 0 
-4.122 1.507 -0.848 0 0 0 
-4.122 1.528 -0.808 0 0 0 
-4.122 1.535 -0.794 0 0 0 
-4.122 1.549 -0.767 0 0 0 
-4.122 1.556 -0.754 0 0 0 
-4.122 1.562 -0.74 0 0 0 
-4.122 1.542 -0.781 0 0 0 
-4.122 1.484 -0.887 0 0 0 
-4.122 1.444 -0.951 0 0 0 
-4.123 1.648 -0.946 0 0 0 
-4.123 1.985 -0.983 0 0 0 
-4.123 2.002 -0.948 0 0 0 
-4.123 2.01 -0.931 0 0 0 
-4.123 1.657 -0.932 0 0 0 
-4.123 1.665 -0.917 0 0 0 
-4.123 1.673 -0.903 0 0 0 
-4.123 1.711 -0.829 0 0 0 
-4.123 2.018 -0.913 0 0 0 
-4.123 2.026 -0.895 0 0 0 
-4.123 2.042 -0.859 0 0 0 
-4.123 2.034 -0.877 0 0 0 
-4.123 1.68 -0.888 0 0 0 
-4.122 1.277 -0.748 0 0 0 
-4.122 1.284 -0.737 0 0 0 
-4.122 1.296 -0.714 0 0 0 
-4.122 1.569 -0.726 0 0 0 
-4.123 1.758 -0.722 0 0 0 
-4.122 1.575 -0.712 0 0 0 
-4.122 1.581 -0.699 0 0 0 
-4.122 1.29 -0.726 0 0 0 
-4.122 0.348 -0.784 0 0 0 
-4.121 1.381 -1.24 0 0 0 
-4.121 1.413 -1.204 0 0 0 
-4.121 1.434 -1.179 0 0 0 
-4.121 1.941 -1.16 0 0 0 
-4.121 1.475 -1.127 0 0 0 
-4.121 1.514 -1.075 0 0 0 
-4.121 1.523 -1.062 0 0 0 
-4.121 1.532 -1.048 0 0 0 
-4.121 1.541 -1.035 0 0 0 
-4.121 1.577 -0.98 0 0 0 
-4.121 1.594 -0.952 0 0 0 
-4.121 1.602 -0.938 0 0 0 
-4.121 1.626 -0.896 0 0 0 
-4.121 1.618 -0.91 0 0 0 
-4.121 1.55 -1.021 0 0 0 
-4.121 1.494 -1.101 0 0 0 
-4.121 1.951 -1.143 0 0 0 
-4.121 1.97 -1.108 0 0 0 
-4.121 1.98 -1.091 0 0 0 
-4.121 1.999 -1.056 0 0 0 
-4.121 2.008 -1.039 0 0 0 
-4.121 2.017 -1.021 0 0 0 
-4.121 2.06 -0.932 0 0 0 
-4.121 2.068 -0.914 0 0 0 
-4.121 2.026 -1.003 0 0 0 
-4.121 1.989 -1.074 0 0 0 
-4.121 1.485 -1.114 0 0 0 
-4.121 2.19 -1.207 0 0 0 
-4.121 2.211 -1.168 0 0 0 
-4.121 2.231 -1.129 0 0 0 
-4.121 2.241 -1.11 0 0 0 
-4.121 1.424 -1.191 0 0 0 
-4.12 0.053 -0.706 0 0 0 
-4.12 2.163 -1.048 0 0 0 
-4.12 0.752 -0.834 0 0 0 
-4.12 2.181 -1.01 0 0 0 
-4.12 2.198 -0.971 0 0 0 
-4.12 2.206 -0.952 0 0 0 
-4.12 2.223 -0.913 0 0 0 
-4.12 2.215 -0.932 0 0 0 
-4.12 2.172 -1.029 0 0 0 
-4.12 0.759 -0.828 0 0 0 
-4.12 0.768 -0.766 0 0 0 
-4.12 0.109 -0.699 0 0 0 
-4.12 0.097 -0.701 0 0 0 
-4.12 0.774 -0.759 0 0 0 
-4.12 0.809 -0.779 0 0 0 
-4.12 0.788 -0.746 0 0 0 
-4.12 0.842 -0.743 0 0 0 
-4.12 0.82 -0.71 0 0 0 
-4.12 0.813 -0.718 0 0 0 
-4.12 0.855 -0.728 0 0 0 
-4.12 0.861 -0.721 0 0 0 
-4.12 0.88 -0.698 0 0 0 
-4.12 0.801 -0.732 0 0 0 
-4.12 0.774 -0.814 0 0 0 
-4.121 2.287 -1.34 0 0 0 
-4.12 -0.126 -0.697 0 0 0 
-4.121 -0.03 -0.634 0 0 0 
-4.122 0.504 -0.694 0 0 0 
-4.124 1.4 -0.693 0 0 0 
-4.123 0.285 -0.689 0 0 0 
-4.123 0.291 -0.687 0 0 0 
-4.124 1.493 -0.691 0 0 0 
-4.124 1.127 -0.687 0 0 0 
-4.124 0.582 -0.681 0 0 0 
-4.124 0.588 -0.675 0 0 0 
-4.124 0.6 -0.665 0 0 0 
-4.124 0.605 -0.66 0 0 0 
-4.124 0.611 -0.654 0 0 0 
-4.124 0.617 -0.649 0 0 0 
-4.124 0.594 -0.67 0 0 0 
-4.124 1.133 -0.677 0 0 0 
-4.124 1.406 -0.681 0 0 0 
-4.124 1.139 -0.667 0 0 0 
-4.124 1.156 -0.637 0 0 0 
-4.124 1.162 -0.627 0 0 0 
-4.124 1.145 -0.657 0 0 0 
-4.124 1.412 -0.669 0 0 0 
-4.125 1.64 -0.673 0 0 0 
-4.124 1.424 -0.644 0 0 0 
-4.124 1.511 -0.652 0 0 0 
-4.124 1.418 -0.656 0 0 0 
-4.124 1.499 -0.678 0 0 0 
-4.124 0.576 -0.686 0 0 0 
-4.123 0.297 -0.684 0 0 0 
-4.123 0.303 -0.681 0 0 0 
-4.123 0.309 -0.679 0 0 0 
-4.123 0.32 -0.673 0 0 0 
-4.123 0.332 -0.668 0 0 0 
-4.123 0.338 -0.665 0 0 0 
-4.123 0.314 -0.676 0 0 0 
-4.123 0.279 -0.692 0 0 0 
-4.121 0.015 -0.634 0 0 0 
-4.121 0.02 -0.634 0 0 0 
-4.121 0.031 -0.634 0 0 0 
-4.121 0.048 -0.633 0 0 0 
-4.121 0.059 -0.632 0 0 0 
-4.121 0.037 -0.633 0 0 0 
-4.122 0.516 -0.685 0 0 0 
-4.122 1.173 -0.687 0 0 0 
-4.122 0.528 -0.675 0 0 0 
-4.122 0.534 -0.671 0 0 0 
-4.122 1.32 -0.669 0 0 0 
-4.122 0.54 -0.666 0 0 0 
-4.122 0.546 -0.661 0 0 0 
-4.122 1.19 -0.656 0 0 0 
-4.122 1.332 -0.645 0 0 0 
-4.122 1.326 -0.657 0 0 0 
-4.122 0.568 -0.642 0 0 0 
-4.122 0.58 -0.632 0 0 0 
-4.122 0.585 -0.627 0 0 0 
-4.122 1.202 -0.635 0 0 0 
-4.122 0.574 -0.637 0 0 0 
-4.122 1.185 -0.666 0 0 0 
-4.122 0.522 -0.68 0 0 0 
-4.121 -0.074 -0.63 0 0 0 
-4.12 0.134 -0.695 0 0 0 
-4.12 0.14 -0.694 0 0 0 
-4.12 0.146 -0.693 0 0 0 
-4.12 0.158 -0.69 0 0 0 
-4.12 0.164 -0.689 0 0 0 
-4.12 0.176 -0.686 0 0 0 
-4.12 0.182 -0.684 0 0 0 
-4.12 0.188 -0.682 0 0 0 
-4.12 0.224 -0.672 0 0 0 
-4.12 0.265 -0.657 0 0 0 
-4.12 0.85 -0.674 0 0 0 
-4.12 0.862 -0.659 0 0 0 
-4.12 0.282 -0.649 0 0 0 
-4.12 0.287 -0.647 0 0 0 
-4.12 0.867 -0.651 0 0 0 
-4.12 0.299 -0.642 0 0 0 
-4.12 0.31 -0.637 0 0 0 
-4.12 0.873 -0.643 0 0 0 
-4.12 0.879 -0.636 0 0 0 
-4.12 0.321 -0.631 0 0 0 
-4.12 0.326 -0.628 0 0 0 
-4.12 0.315 -0.634 0 0 0 
-4.12 0.293 -0.644 0 0 0 
-4.12 0.276 -0.652 0 0 0 
-4.12 0.194 -0.681 0 0 0 
-4.12 0.17 -0.687 0 0 0 
-4.12 0.886 -0.69 0 0 0 
-4.12 0.892 -0.682 0 0 0 
-4.12 0.904 -0.666 0 0 0 
-4.12 0.91 -0.658 0 0 0 
-4.12 0.916 -0.65 0 0 0 
-4.12 0.927 -0.634 0 0 0 
-4.12 0.933 -0.626 0 0 0 
-4.12 0.921 -0.642 0 0 0 
-4.12 0.898 -0.674 0 0 0 
-4.12 0.152 -0.691 0 0 0 
-4.12 -0.315 -0.634 0 0 0 
-4.12 -0.331 -0.626 0 0 0 
-4.121 0.125 -0.622 0 0 0 
-4.123 0.411 -0.622 0 0 0 
-4.121 0.136 -0.62 0 0 0 
-4.121 0.141 -0.618 0 0 0 
-4.121 0.147 -0.617 0 0 0 
-4.121 0.152 -0.616 0 0 0 
-4.121 0.163 -0.613 0 0 0 
-4.121 0.169 -0.612 0 0 0 
-4.121 0.174 -0.61 0 0 0 
-4.121 0.158 -0.614 0 0 0 
-4.121 0.131 -0.621 0 0 0 
-4.123 0.417 -0.618 0 0 0 
-4.124 0.645 -0.621 0 0 0 
-4.124 1.435 -0.619 0 0 0 
-4.124 1.522 -0.625 0 0 0 
-4.124 1.167 -0.617 0 0 0 
-4.122 0.591 -0.621 0 0 0 
-4.122 0.596 -0.616 0 0 0 
-4.122 1.343 -0.622 0 0 0 
-4.124 0.65 -0.616 0 0 0 
-4.123 0.428 -0.611 0 0 0 
-4.124 0.656 -0.61 0 0 0 
-4.123 0.422 -0.614 0 0 0 
-4.122 0.601 -0.611 0 0 0 
-4.122 1.349 -0.61 0 0 0 
-4.121 -0.124 -0.622 0 0 0 
-4.12 0.354 -0.613 0 0 0 
-4.12 0.895 -0.612 0 0 0 
-4.12 0.359 -0.61 0 0 0 
-4.12 -0.348 -0.617 0 0 0 
-4.112 -0.353 -0.779 0 0 0 
-4.112 -0.36 -0.776 0 0 0 
-4.09 -0.363 -1.095 0 0 0 
-4.09 -0.365 -1.135 0 0 0 
2.317 -0.364 -7.69 0 0 0 
-3.948 -0.365 -6.496 0 0 0 
-4.088 -0.364 -1.38 0 0 0 
-4.036 -0.365 -3.337 0 0 0 
2.137 -0.364 -1.245 0 0 0 
2.223 -0.364 -4.396 0 0 0 
2.166 -0.364 -2.674 0 0 0 
