# .PCD v0.7 - Point Cloud Data file format
VERSION 0.7
FIELDS x y z r g b
SIZE 4 4 4 1 1 1
TYPE F F F I I I
COUNT 1 1 1 1 1 1
WIDTH 1811
HEIGHT 1
VIEWPOINT 0 0 0 1 0 0 0
POINTS 1811
DATA ascii
-2.761 3.477 -0.421 0 0 0 
-4.505 1.38 -0.419 0 0 0 
-4.488 1.465 -0.418 0 0 0 
-4.292 1.571 -0.418 0 0 0 
11.223 1.572 -0.418 0 0 0 
11.391 1.6 -0.411 0 0 0 
25.026 1.589 -0.408 0 0 0 
16.994 1.661 -0.411 0 0 0 
-3.945 1.685 -0.417 0 0 0 
-3.715 1.825 -0.418 0 0 0 
11.084 1.756 -0.418 0 0 0 
9.393 2.172 -0.418 0 0 0 
11.198 1.982 -0.417 0 0 0 
25.134 2.272 -0.417 0 0 0 
-3.484 2.52 -0.417 0 0 0 
17.543 2.668 -0.418 0 0 0 
4.051 2.522 -0.417 0 0 0 
-3.785 1.819 -0.417 0 0 0 
-3.855 1.813 -0.415 0 0 0 
25.091 1.818 -0.416 0 0 0 
-3.768 1.855 -0.408 0 0 0 
-3.664 1.883 -0.414 0 0 0 
-2.906 2.253 -0.413 0 0 0 
11.053 2.057 -0.415 0 0 0 
11.196 1.879 -0.413 0 0 0 
17.505 1.872 -0.412 0 0 0 
-2.796 2.247 -0.412 0 0 0 
9.422 2.268 -0.416 0 0 0 
-3.001 2.245 -0.412 0 0 0 
-2.816 2.349 -0.41 0 0 0 
17.518 2.032 -0.41 0 0 0 
-2.671 2.348 -0.41 0 0 0 
4.073 2.487 -0.411 0 0 0 
-3.405 2.509 -0.415 0 0 0 
9.072 2.613 -0.409 0 0 0 
-3.689 1.856 -0.408 0 0 0 
-4.297 1.532 -0.408 0 0 0 
-4.325 1.632 -0.404 0 0 0 
-4.292 1.575 -0.405 0 0 0 
11.173 1.774 -0.406 0 0 0 
11.603 1.526 -0.406 0 0 0 
-3.862 1.775 -0.407 0 0 0 
-2.834 2.452 -0.406 0 0 0 
9.494 1.844 -0.405 0 0 0 
9.497 1.933 -0.407 0 0 0 
9.499 2.022 -0.407 0 0 0 
11.377 2.331 -0.407 0 0 0 
9.324 2.333 -0.407 0 0 0 
9.48 2.107 -0.405 0 0 0 
-3.574 2.446 -0.405 0 0 0 
-2.792 2.204 -0.404 0 0 0 
-4.473 2.738 -0.404 0 0 0 
-3.764 3.708 -0.416 0 0 0 
3.139 2.82 -0.416 0 0 0 
3.677 2.816 -0.416 0 0 0 
3.248 2.818 -0.416 0 0 0 
3.733 2.808 -0.415 0 0 0 
9.101 2.796 -0.413 0 0 0 
8.933 2.829 -0.418 0 0 0 
10.789 3.014 -0.418 0 0 0 
8.601 3.407 -0.412 0 0 0 
-4.474 2.793 -0.412 0 0 0 
-2.986 3.632 -0.407 0 0 0 
3.265 2.783 -0.411 0 0 0 
2.936 2.933 -0.407 0 0 0 
3.734 2.758 -0.407 0 0 0 
8.975 2.931 -0.407 0 0 0 
3.168 2.952 -0.409 0 0 0 
10.883 2.939 -0.408 0 0 0 
3.051 2.944 -0.408 0 0 0 
3.018 2.964 -0.411 0 0 0 
8.671 4.351 -0.411 0 0 0 
10.87 5.345 -0.411 0 0 0 
8.591 3.668 -0.411 0 0 0 
8.696 3.624 -0.406 0 0 0 
10.243 3.962 -0.409 0 0 0 
10.492 3.954 -0.409 0 0 0 
11.043 5.311 -0.408 0 0 0 
-6.879 0.979 -0.404 0 0 0 
-6.879 0.982 -0.395 0 0 0 
-3.896 1.751 -0.401 0 0 0 
-2.878 2.192 -0.402 0 0 0 
9.49 2.198 -0.403 0 0 0 
-3.24 2.431 -0.402 0 0 0 
-3.664 1.886 -0.397 0 0 0 
-2.886 2.281 -0.398 0 0 0 
-2.799 2.293 -0.4 0 0 0 
11.238 1.683 -0.401 0 0 0 
4.108 2.411 -0.399 0 0 0 
25.061 1.819 -0.4 0 0 0 
17.674 1.894 -0.399 0 0 0 
11.062 2.062 -0.397 0 0 0 
15.596 2.084 -0.401 0 0 0 
11.152 2.182 -0.4 0 0 0 
9.432 2.274 -0.397 0 0 0 
-3.629 2.438 -0.403 0 0 0 
4.012 2.549 -0.399 0 0 0 
-5.014 1.605 -0.397 0 0 0 
-4.541 1.536 -0.394 0 0 0 
-4.292 1.489 -0.396 0 0 0 
-3.921 1.722 -0.394 0 0 0 
-3.907 1.8 -0.396 0 0 0 
16.984 1.664 -0.396 0 0 0 
25.026 1.592 -0.394 0 0 0 
11.322 1.593 -0.394 0 0 0 
-3.81 1.795 -0.395 0 0 0 
15.743 1.963 -0.396 0 0 0 
25.094 2.272 -0.396 0 0 0 
-3.429 2.53 -0.396 0 0 0 
-2.854 2.384 -0.394 0 0 0 
11.166 1.878 -0.395 0 0 0 
-2.811 2.263 -0.395 0 0 0 
-4.297 1.535 -0.394 0 0 0 
-4.334 1.639 -0.391 0 0 0 
11.583 1.527 -0.392 0 0 0 
-4.292 1.579 -0.391 0 0 0 
3.967 2.375 -0.393 0 0 0 
11.002 1.95 -0.393 0 0 0 
-3.786 1.867 -0.393 0 0 0 
-3.577 2.497 -0.391 0 0 0 
4.112 2.366 -0.391 0 0 0 
17.528 2.037 -0.392 0 0 0 
15.676 2.239 -0.391 0 0 0 
9.516 1.94 -0.391 0 0 0 
-2.891 2.372 -0.392 0 0 0 
-5.144 2.561 -0.401 0 0 0 
-4.93 2.731 -0.403 0 0 0 
3.758 2.726 -0.402 0 0 0 
3.823 2.722 -0.402 0 0 0 
-4.54 2.725 -0.402 0 0 0 
-3.059 2.701 -0.399 0 0 0 
9.126 2.717 -0.401 0 0 0 
3.027 2.87 -0.398 0 0 0 
-4.592 2.87 -0.398 0 0 0 
-3.464 3.597 -0.403 0 0 0 
-3.165 3.586 -0.402 0 0 0 
8.839 3.594 -0.403 0 0 0 
-2.904 3.596 -0.403 0 0 0 
-3.899 3.582 -0.402 0 0 0 
-3.689 3.571 -0.4 0 0 0 
3.253 2.876 -0.399 0 0 0 
3.198 2.877 -0.399 0 0 0 
-2.973 3.553 -0.398 0 0 0 
8.625 3.865 -0.399 0 0 0 
-4.971 2.698 -0.398 0 0 0 
-4.813 2.836 -0.393 0 0 0 
17.563 2.674 -0.395 0 0 0 
9.236 2.663 -0.393 0 0 0 
3.612 2.821 -0.391 0 0 0 
-4.441 2.829 -0.392 0 0 0 
-3.72 3.539 -0.397 0 0 0 
3.128 2.864 -0.397 0 0 0 
8.935 3.543 -0.397 0 0 0 
-3.773 3.527 -0.395 0 0 0 
-3.584 3.789 -0.391 0 0 0 
-3.456 3.785 -0.391 0 0 0 
8.943 2.836 -0.393 0 0 0 
8.948 3.012 -0.391 0 0 0 
-3.2 3.502 -0.393 0 0 0 
10.348 3.797 -0.392 0 0 0 
8.699 4.56 -0.391 0 0 0 
-6.918 0.924 -0.391 0 0 0 
-6.918 0.949 -0.325 0 0 0 
-6.918 0.952 -0.317 0 0 0 
-6.918 0.946 -0.333 0 0 0 
-6.889 0.987 -0.387 0 0 0 
-6.908 0.926 -0.382 0 0 0 
-6.908 0.932 -0.366 0 0 0 
-6.908 0.956 -0.3 0 0 0 
-6.908 0.929 -0.374 0 0 0 
-6.899 0.992 -0.379 0 0 0 
-6.909 0.997 -0.371 0 0 0 
-5.139 2.507 -0.37 0 0 0 
-5.099 2.543 -0.375 0 0 0 
-3.972 1.704 -0.39 0 0 0 
9.474 1.844 -0.388 0 0 0 
11.143 1.772 -0.39 0 0 0 
-3.923 1.766 -0.388 0 0 0 
-3.794 1.831 -0.386 0 0 0 
11.238 1.686 -0.386 0 0 0 
25.28 1.838 -0.387 0 0 0 
-3.672 1.85 -0.39 0 0 0 
-3.287 2.47 -0.387 0 0 0 
9.489 2.023 -0.389 0 0 0 
9.471 2.108 -0.387 0 0 0 
-2.953 2.212 -0.386 0 0 0 
-2.882 2.238 -0.39 0 0 0 
4.0 2.494 -0.39 0 0 0 
-2.924 2.489 -0.39 0 0 0 
-2.946 2.464 -0.386 0 0 0 
4.15 2.34 -0.387 0 0 0 
9.539 2.213 -0.386 0 0 0 
-2.904 2.341 -0.387 0 0 0 
-2.872 2.488 -0.389 0 0 0 
9.353 2.344 -0.388 0 0 0 
-3.599 2.467 -0.386 0 0 0 
-5.052 1.621 -0.386 0 0 0 
-5.062 1.627 -0.373 0 0 0 
-4.297 1.539 -0.381 0 0 0 
-4.311 1.592 -0.365 0 0 0 
-4.292 1.496 -0.37 0 0 0 
11.626 1.429 -0.38 0 0 0 
11.567 1.425 -0.366 0 0 0 
-4.282 1.489 -0.382 0 0 0 
-3.921 1.725 -0.379 0 0 0 
25.056 1.598 -0.381 0 0 0 
11.262 1.588 -0.378 0 0 0 
11.573 1.529 -0.378 0 0 0 
17.024 1.671 -0.383 0 0 0 
-4.283 1.578 -0.376 0 0 0 
-4.278 1.535 -0.366 0 0 0 
11.228 1.688 -0.371 0 0 0 
17.104 1.682 -0.37 0 0 0 
11.563 1.531 -0.365 0 0 0 
11.322 1.6 -0.366 0 0 0 
25.076 1.602 -0.367 0 0 0 
-3.972 1.707 -0.375 0 0 0 
11.143 1.776 -0.374 0 0 0 
-3.923 1.77 -0.373 0 0 0 
-4.352 1.475 -0.365 0 0 0 
-4.954 1.788 -0.377 0 0 0 
-3.395 2.459 -0.385 0 0 0 
15.626 2.092 -0.384 0 0 0 
17.694 1.9 -0.383 0 0 0 
-2.878 2.195 -0.383 0 0 0 
11.347 2.329 -0.385 0 0 0 
-4.9 1.817 -0.383 0 0 0 
-5.019 1.815 -0.366 0 0 0 
-3.819 1.802 -0.38 0 0 0 
-3.706 1.831 -0.369 0 0 0 
-4.947 1.837 -0.37 0 0 0 
-3.689 1.863 -0.375 0 0 0 
-3.673 1.894 -0.382 0 0 0 
-2.949 2.253 -0.373 0 0 0 
11.112 2.177 -0.38 0 0 0 
11.092 2.071 -0.38 0 0 0 
9.523 1.857 -0.374 0 0 0 
10.992 1.952 -0.376 0 0 0 
9.497 1.94 -0.373 0 0 0 
11.176 1.883 -0.379 0 0 0 
15.743 1.967 -0.379 0 0 0 
25.213 2.061 -0.378 0 0 0 
17.617 2.051 -0.376 0 0 0 
-2.898 2.254 -0.373 0 0 0 
-2.901 2.297 -0.38 0 0 0 
9.451 2.282 -0.377 0 0 0 
25.074 2.273 -0.376 0 0 0 
-2.95 2.382 -0.373 0 0 0 
4.112 2.369 -0.371 0 0 0 
9.479 2.024 -0.371 0 0 0 
25.34 1.846 -0.372 0 0 0 
15.696 2.245 -0.371 0 0 0 
-3.115 2.383 -0.373 0 0 0 
-3.62 2.578 -0.38 0 0 0 
-3.421 2.527 -0.373 0 0 0 
3.963 2.423 -0.379 0 0 0 
-2.937 2.413 -0.378 0 0 0 
4.074 2.394 -0.375 0 0 0 
-3.375 2.539 -0.375 0 0 0 
-3.812 1.843 -0.371 0 0 0 
-3.69 1.907 -0.367 0 0 0 
3.941 2.363 -0.37 0 0 0 
3.966 2.476 -0.365 0 0 0 
9.402 2.359 -0.369 0 0 0 
15.745 2.111 -0.368 0 0 0 
17.734 1.907 -0.367 0 0 0 
9.48 2.113 -0.369 0 0 0 
-3.632 2.492 -0.368 0 0 0 
-3.452 2.504 -0.37 0 0 0 
-2.924 2.493 -0.368 0 0 0 
-5.067 2.582 -0.381 0 0 0 
-4.977 2.646 -0.39 0 0 0 
9.082 2.793 -0.387 0 0 0 
-3.022 2.622 -0.387 0 0 0 
-4.837 2.794 -0.388 0 0 0 
-2.966 3.481 -0.39 0 0 0 
-4.676 2.811 -0.39 0 0 0 
-4.566 2.799 -0.388 0 0 0 
-4.315 2.802 -0.389 0 0 0 
3.04 2.988 -0.388 0 0 0 
8.576 3.754 -0.388 0 0 0 
-3.096 3.448 -0.387 0 0 0 
-5.036 2.621 -0.387 0 0 0 
-5.003 2.663 -0.369 0 0 0 
-4.93 2.735 -0.379 0 0 0 
-4.945 2.687 -0.373 0 0 0 
-4.905 2.777 -0.385 0 0 0 
-4.626 2.839 -0.369 0 0 0 
-3.06 2.658 -0.369 0 0 0 
-3.014 2.665 -0.37 0 0 0 
3.621 2.777 -0.385 0 0 0 
3.685 2.776 -0.385 0 0 0 
3.67 2.714 -0.376 0 0 0 
3.098 2.691 -0.373 0 0 0 
3.838 2.687 -0.373 0 0 0 
3.886 2.671 -0.37 0 0 0 
3.758 2.729 -0.379 0 0 0 
3.716 2.853 -0.37 0 0 0 
2.944 2.844 -0.369 0 0 0 
9.202 2.743 -0.38 0 0 0 
9.293 2.683 -0.372 0 0 0 
9.499 2.835 -0.368 0 0 0 
-4.525 2.831 -0.368 0 0 0 
-3.837 2.637 -0.366 0 0 0 
10.086 2.63 -0.365 0 0 0 
3.701 2.639 -0.366 0 0 0 
-4.847 2.86 -0.371 0 0 0 
-3.541 3.679 -0.38 0 0 0 
10.253 2.964 -0.385 0 0 0 
2.95 2.951 -0.383 0 0 0 
3.154 2.942 -0.382 0 0 0 
9.013 2.947 -0.383 0 0 0 
10.61 3.17 -0.384 0 0 0 
3.113 2.956 -0.384 0 0 0 
-2.983 3.441 -0.386 0 0 0 
8.686 4.457 -0.382 0 0 0 
-4.256 2.928 -0.38 0 0 0 
-3.87 3.558 -0.368 0 0 0 
2.895 3.28 -0.368 0 0 0 
3.187 2.921 -0.379 0 0 0 
9.321 2.87 -0.373 0 0 0 
3.245 2.872 -0.373 0 0 0 
9.019 2.863 -0.372 0 0 0 
3.22 2.9 -0.377 0 0 0 
8.884 3.08 -0.373 0 0 0 
10.503 3.039 -0.368 0 0 0 
-3.03 3.561 -0.368 0 0 0 
8.728 3.552 -0.367 0 0 0 
-3.809 3.565 -0.368 0 0 0 
-3.598 3.61 -0.373 0 0 0 
-2.879 3.632 -0.375 0 0 0 
-2.816 3.618 -0.374 0 0 0 
8.724 3.639 -0.376 0 0 0 
-3.127 3.61 -0.373 0 0 0 
-3.573 3.648 -0.377 0 0 0 
8.582 3.667 -0.379 0 0 0 
8.689 4.363 -0.374 0 0 0 
-3.665 3.613 -0.373 0 0 0 
-2.892 3.584 -0.37 0 0 0 
10.075 3.901 -0.369 0 0 0 
10.333 3.898 -0.368 0 0 0 
8.644 3.876 -0.366 0 0 0 
9.91 3.936 -0.372 0 0 0 
10.96 5.392 -0.367 0 0 0 
-5.105 1.593 -0.365 0 0 0 
-5.208 1.742 -0.304 0 0 0 
-5.109 2.725 -0.33 0 0 0 
-5.109 2.728 -0.306 0 0 0 
-5.103 2.496 -0.324 0 0 0 
-4.928 1.833 -0.353 0 0 0 
11.567 1.428 -0.353 0 0 0 
-4.451 1.467 -0.363 0 0 0 
-3.972 1.71 -0.36 0 0 0 
11.238 1.693 -0.357 0 0 0 
11.381 1.612 -0.354 0 0 0 
25.126 1.608 -0.354 0 0 0 
-3.911 1.724 -0.363 0 0 0 
-3.743 1.893 -0.364 0 0 0 
11.206 1.891 -0.364 0 0 0 
-2.932 2.325 -0.364 0 0 0 
-3.819 1.806 -0.364 0 0 0 
-3.733 1.848 -0.356 0 0 0 
-2.945 2.294 -0.359 0 0 0 
10.972 1.952 -0.358 0 0 0 
11.102 2.076 -0.362 0 0 0 
11.073 2.173 -0.36 0 0 0 
9.536 1.951 -0.358 0 0 0 
9.393 2.182 -0.361 0 0 0 
9.403 2.273 -0.356 0 0 0 
11.114 1.774 -0.358 0 0 0 
17.499 2.196 -0.363 0 0 0 
15.713 1.966 -0.361 0 0 0 
17.726 2.067 -0.36 0 0 0 
25.084 2.277 -0.356 0 0 0 
25.243 2.066 -0.36 0 0 0 
25.4 1.854 -0.357 0 0 0 
11.239 2.31 -0.362 0 0 0 
-2.877 2.41 -0.356 0 0 0 
9.518 2.036 -0.355 0 0 0 
-2.929 2.41 -0.356 0 0 0 
3.988 2.441 -0.36 0 0 0 
-2.966 2.397 -0.354 0 0 0 
-3.495 2.444 -0.361 0 0 0 
-3.194 2.447 -0.361 0 0 0 
-4.254 1.486 -0.354 0 0 0 
-4.288 1.542 -0.353 0 0 0 
17.004 1.675 -0.353 0 0 0 
11.563 1.534 -0.351 0 0 0 
-3.767 1.824 -0.351 0 0 0 
-3.492 2.536 -0.352 0 0 0 
15.726 2.253 -0.353 0 0 0 
4.065 2.392 -0.353 0 0 0 
9.519 2.125 -0.352 0 0 0 
17.794 1.917 -0.352 0 0 0 
-3.367 2.536 -0.352 0 0 0 
-2.995 2.378 -0.351 0 0 0 
-5.072 2.532 -0.351 0 0 0 
-5.054 2.526 -0.328 0 0 0 
-5.052 1.538 -0.31 0 0 0 
-4.309 1.426 -0.326 0 0 0 
-4.384 1.448 -0.345 0 0 0 
-4.391 1.582 -0.348 0 0 0 
-4.339 1.521 -0.334 0 0 0 
-4.286 1.462 -0.321 0 0 0 
-4.384 1.454 -0.319 0 0 0 
-4.384 1.456 -0.307 0 0 0 
-4.324 1.478 -0.311 0 0 0 
-4.362 1.493 -0.301 0 0 0 
-4.267 1.45 -0.345 0 0 0 
11.557 1.43 -0.341 0 0 0 
-4.258 1.449 -0.332 0 0 0 
-4.264 1.492 -0.342 0 0 0 
11.573 1.541 -0.325 0 0 0 
11.583 1.54 -0.338 0 0 0 
11.593 1.547 -0.312 0 0 0 
-4.532 1.554 -0.299 0 0 0 
-5.038 1.584 -0.305 0 0 0 
-5.019 1.818 -0.35 0 0 0 
-4.938 1.84 -0.337 0 0 0 
-4.913 1.729 -0.349 0 0 0 
11.47 1.627 -0.343 0 0 0 
11.257 1.699 -0.342 0 0 0 
16.984 1.676 -0.338 0 0 0 
-3.945 1.702 -0.343 0 0 0 
11.275 1.906 -0.35 0 0 0 
-3.93 1.735 -0.35 0 0 0 
-3.795 1.882 -0.345 0 0 0 
11.123 1.779 -0.342 0 0 0 
-3.716 1.883 -0.345 0 0 0 
-3.561 2.492 -0.346 0 0 0 
-3.397 2.513 -0.349 0 0 0 
-3.008 2.346 -0.346 0 0 0 
4.086 2.357 -0.348 0 0 0 
15.685 2.106 -0.348 0 0 0 
17.826 2.082 -0.344 0 0 0 
17.499 2.199 -0.344 0 0 0 
15.694 1.967 -0.343 0 0 0 
9.382 2.357 -0.348 0 0 0 
11.082 2.076 -0.343 0 0 0 
3.856 2.315 -0.342 0 0 0 
10.982 1.956 -0.341 0 0 0 
25.193 2.065 -0.342 0 0 0 
9.325 2.169 -0.34 0 0 0 
11.132 2.188 -0.342 0 0 0 
11.181 2.301 -0.34 0 0 0 
-2.879 2.457 -0.341 0 0 0 
3.911 2.492 -0.346 0 0 0 
3.933 2.458 -0.341 0 0 0 
-3.433 2.448 -0.34 0 0 0 
-2.968 2.445 -0.339 0 0 0 
9.557 2.047 -0.339 0 0 0 
4.027 2.42 -0.336 0 0 0 
-4.546 1.597 -0.336 0 0 0 
-4.979 1.761 -0.307 0 0 0 
-4.972 1.804 -0.331 0 0 0 
-4.975 1.86 -0.308 0 0 0 
-4.984 1.86 -0.324 0 0 0 
-4.94 1.895 -0.314 0 0 0 
-4.926 1.79 -0.312 0 0 0 
-4.885 1.725 -0.316 0 0 0 
-3.954 1.709 -0.329 0 0 0 
11.391 1.622 -0.312 0 0 0 
11.47 1.63 -0.329 0 0 0 
18.293 1.648 -0.332 0 0 0 
11.287 1.706 -0.328 0 0 0 
16.964 1.68 -0.308 0 0 0 
18.522 1.671 -0.322 0 0 0 
16.984 1.679 -0.323 0 0 0 
-4.834 1.66 -0.305 0 0 0 
11.411 1.627 -0.298 0 0 0 
-4.856 1.712 -0.33 0 0 0 
-3.749 1.818 -0.334 0 0 0 
9.373 2.269 -0.335 0 0 0 
11.235 1.902 -0.332 0 0 0 
15.695 2.11 -0.33 0 0 0 
9.549 2.135 -0.334 0 0 0 
15.696 2.251 -0.332 0 0 0 
-2.943 2.381 -0.33 0 0 0 
-2.824 2.368 -0.328 0 0 0 
11.153 1.787 -0.328 0 0 0 
-3.538 2.386 -0.331 0 0 0 
-3.555 2.538 -0.329 0 0 0 
-3.618 2.535 -0.329 0 0 0 
-3.774 1.79 -0.328 0 0 0 
-3.835 1.782 -0.311 0 0 0 
11.386 1.724 -0.316 0 0 0 
11.202 1.797 -0.313 0 0 0 
11.416 1.731 -0.302 0 0 0 
-3.783 1.798 -0.314 0 0 0 
-3.803 1.847 -0.322 0 0 0 
-2.932 2.331 -0.323 0 0 0 
11.031 1.968 -0.326 0 0 0 
17.396 1.877 -0.327 0 0 0 
11.21 2.206 -0.326 0 0 0 
9.461 2.204 -0.325 0 0 0 
17.627 2.061 -0.323 0 0 0 
25.223 2.071 -0.324 0 0 0 
9.577 2.054 -0.322 0 0 0 
11.082 2.079 -0.325 0 0 0 
11.2 2.308 -0.32 0 0 0 
9.343 2.35 -0.326 0 0 0 
3.835 2.351 -0.326 0 0 0 
-3.013 2.31 -0.32 0 0 0 
-2.974 2.409 -0.313 0 0 0 
-2.971 2.365 -0.307 0 0 0 
9.52 2.22 -0.308 0 0 0 
9.383 2.274 -0.315 0 0 0 
9.558 2.14 -0.316 0 0 0 
11.275 1.911 -0.316 0 0 0 
11.189 1.999 -0.313 0 0 0 
15.656 2.108 -0.311 0 0 0 
15.696 2.254 -0.313 0 0 0 
11.25 2.216 -0.307 0 0 0 
11.072 2.08 -0.307 0 0 0 
9.596 2.061 -0.304 0 0 0 
17.088 1.846 -0.305 0 0 0 
25.223 2.073 -0.306 0 0 0 
17.548 2.055 -0.303 0 0 0 
-2.921 2.281 -0.316 0 0 0 
-2.862 2.403 -0.312 0 0 0 
3.929 2.411 -0.313 0 0 0 
3.873 2.424 -0.315 0 0 0 
4.052 2.439 -0.317 0 0 0 
-2.899 2.391 -0.31 0 0 0 
9.324 2.348 -0.305 0 0 0 
11.23 2.316 -0.301 0 0 0 
-3.637 2.456 -0.319 0 0 0 
-3.46 2.516 -0.327 0 0 0 
-2.924 2.501 -0.303 0 0 0 
-2.879 2.46 -0.319 0 0 0 
3.869 2.468 -0.32 0 0 0 
9.583 2.505 -0.303 0 0 0 
-3.373 2.501 -0.303 0 0 0 
-3.389 2.51 -0.326 0 0 0 
11.197 2.515 -0.304 0 0 0 
15.693 2.537 -0.307 0 0 0 
3.936 2.513 -0.304 0 0 0 
-3.607 2.484 -0.301 0 0 0 
-3.819 1.817 -0.301 0 0 0 
-3.149 2.465 -0.298 0 0 0 
9.451 2.293 -0.298 0 0 0 
11.285 1.916 -0.3 0 0 0 
11.222 1.803 -0.298 0 0 0 
-2.953 2.308 -0.3 0 0 0 
4.005 2.461 -0.298 0 0 0 
-5.072 2.538 -0.307 0 0 0 
-5.041 2.572 -0.357 0 0 0 
3.947 2.563 -0.356 0 0 0 
-3.875 2.564 -0.356 0 0 0 
-3.375 2.545 -0.33 0 0 0 
3.947 2.566 -0.333 0 0 0 
-5.032 2.57 -0.334 0 0 0 
-4.829 2.793 -0.363 0 0 0 
3.893 2.626 -0.364 0 0 0 
3.701 2.791 -0.362 0 0 0 
-4.307 2.8 -0.364 0 0 0 
-3.691 3.515 -0.363 0 0 0 
8.882 2.993 -0.362 0 0 0 
11.034 5.31 -0.362 0 0 0 
-5.009 2.61 -0.362 0 0 0 
-4.974 2.595 -0.337 0 0 0 
-5.008 2.784 -0.337 0 0 0 
-5.006 2.727 -0.33 0 0 0 
-4.968 2.647 -0.344 0 0 0 
-3.949 2.617 -0.34 0 0 0 
-2.985 2.596 -0.337 0 0 0 
3.068 2.668 -0.346 0 0 0 
3.354 2.669 -0.346 0 0 0 
3.87 2.662 -0.346 0 0 0 
3.846 2.696 -0.35 0 0 0 
10.309 2.691 -0.349 0 0 0 
-2.999 2.655 -0.345 0 0 0 
3.644 2.601 -0.338 0 0 0 
3.424 2.68 -0.324 0 0 0 
3.354 2.672 -0.323 0 0 0 
3.878 2.671 -0.323 0 0 0 
3.885 2.623 -0.341 0 0 0 
17.524 2.678 -0.324 0 0 0 
-4.42 2.663 -0.322 0 0 0 
-4.962 2.7 -0.35 0 0 0 
-4.956 2.752 -0.357 0 0 0 
10.15 2.744 -0.356 0 0 0 
3.774 2.744 -0.356 0 0 0 
-4.905 2.78 -0.361 0 0 0 
3.557 2.781 -0.361 0 0 0 
-4.365 2.784 -0.361 0 0 0 
-4.423 2.934 -0.355 0 0 0 
3.161 2.952 -0.357 0 0 0 
9.022 2.954 -0.357 0 0 0 
10.667 3.191 -0.358 0 0 0 
3.099 2.945 -0.356 0 0 0 
-3.116 3.473 -0.359 0 0 0 
8.787 3.487 -0.36 0 0 0 
-2.86 3.482 -0.36 0 0 0 
8.586 3.761 -0.355 0 0 0 
10.273 3.773 -0.356 0 0 0 
-4.548 2.737 -0.355 0 0 0 
-4.819 2.734 -0.331 0 0 0 
-4.812 2.786 -0.337 0 0 0 
-4.415 2.82 -0.341 0 0 0 
-4.414 2.987 -0.335 0 0 0 
-4.398 2.755 -0.333 0 0 0 
3.216 2.849 -0.345 0 0 0 
3.678 2.723 -0.354 0 0 0 
8.991 2.857 -0.346 0 0 0 
-2.665 2.813 -0.34 0 0 0 
3.227 2.761 -0.334 0 0 0 
3.598 2.765 -0.335 0 0 0 
3.344 2.761 -0.334 0 0 0 
3.297 2.771 -0.335 0 0 0 
3.701 2.794 -0.338 0 0 0 
8.863 2.732 -0.331 0 0 0 
3.702 2.744 -0.332 0 0 0 
10.265 2.778 -0.336 0 0 0 
-4.391 2.858 -0.346 0 0 0 
10.462 2.929 -0.354 0 0 0 
3.18 2.918 -0.353 0 0 0 
3.19 2.982 -0.334 0 0 0 
3.113 2.962 -0.332 0 0 0 
3.235 2.917 -0.353 0 0 0 
3.272 2.953 -0.331 0 0 0 
8.93 3.012 -0.338 0 0 0 
-4.456 2.737 -0.331 0 0 0 
-4.474 2.915 -0.327 0 0 0 
3.128 2.723 -0.329 0 0 0 
3.353 2.72 -0.329 0 0 0 
3.734 2.718 -0.329 0 0 0 
3.683 2.885 -0.323 0 0 0 
3.143 2.887 -0.324 0 0 0 
3.855 2.704 -0.327 0 0 0 
9.029 2.872 -0.322 0 0 0 
-2.734 2.888 -0.324 0 0 0 
8.946 2.932 -0.329 0 0 0 
-4.556 3.026 -0.339 0 0 0 
-3.612 3.627 -0.343 0 0 0 
-2.833 3.388 -0.35 0 0 0 
2.96 3.358 -0.347 0 0 0 
8.95 3.106 -0.348 0 0 0 
3.003 3.347 -0.346 0 0 0 
10.599 3.07 -0.344 0 0 0 
-2.828 3.637 -0.344 0 0 0 
-3.088 3.632 -0.343 0 0 0 
-2.829 3.573 -0.338 0 0 0 
8.756 3.566 -0.337 0 0 0 
2.826 3.263 -0.337 0 0 0 
8.678 3.623 -0.342 0 0 0 
-3.566 3.644 -0.344 0 0 0 
-3.508 3.713 -0.351 0 0 0 
-3.541 3.682 -0.348 0 0 0 
8.655 3.702 -0.35 0 0 0 
8.629 4.526 -0.348 0 0 0 
8.703 4.469 -0.344 0 0 0 
10.084 3.907 -0.335 0 0 0 
9.948 3.954 -0.339 0 0 0 
-3.788 3.547 -0.335 0 0 0 
-3.633 3.463 -0.327 0 0 0 
-3.61 3.501 -0.331 0 0 0 
-3.617 3.764 -0.323 0 0 0 
-3.558 3.511 -0.332 0 0 0 
-2.916 3.49 -0.33 0 0 0 
-3.079 3.496 -0.33 0 0 0 
-2.773 3.44 -0.325 0 0 0 
10.095 3.118 -0.322 0 0 0 
8.913 3.183 -0.329 0 0 0 
2.95 3.409 -0.322 0 0 0 
-3.156 3.521 -0.333 0 0 0 
8.68 3.896 -0.334 0 0 0 
8.622 3.78 -0.324 0 0 0 
8.626 4.335 -0.333 0 0 0 
10.23 3.862 -0.331 0 0 0 
10.555 3.88 -0.332 0 0 0 
11.014 5.422 -0.322 0 0 0 
-5.089 2.658 -0.322 0 0 0 
-5.024 2.739 -0.307 0 0 0 
-3.508 2.554 -0.309 0 0 0 
-5.005 2.559 -0.31 0 0 0 
-4.469 2.639 -0.319 0 0 0 
3.676 2.627 -0.318 0 0 0 
3.966 2.631 -0.318 0 0 0 
-3.748 2.63 -0.318 0 0 0 
-3.392 2.607 -0.315 0 0 0 
-3.902 2.637 -0.319 0 0 0 
-2.999 2.657 -0.321 0 0 0 
3.208 2.845 -0.319 0 0 0 
3.91 2.643 -0.32 0 0 0 
10.202 2.859 -0.321 0 0 0 
8.941 3.106 -0.321 0 0 0 
10.342 3.096 -0.32 0 0 0 
3.318 2.841 -0.319 0 0 0 
2.82 3.376 -0.319 0 0 0 
-3.508 3.716 -0.318 0 0 0 
3.677 2.829 -0.317 0 0 0 
10.362 2.807 -0.315 0 0 0 
3.717 2.809 -0.315 0 0 0 
9.345 3.065 -0.317 0 0 0 
8.6 3.681 -0.315 0 0 0 
8.807 3.68 -0.315 0 0 0 
8.987 3.663 -0.314 0 0 0 
10.989 5.291 -0.314 0 0 0 
-4.658 3.038 -0.314 0 0 0 
-4.886 2.719 -0.305 0 0 0 
-4.49 2.984 -0.308 0 0 0 
-3.415 2.578 -0.312 0 0 0 
3.972 2.586 -0.313 0 0 0 
-2.97 2.586 -0.313 0 0 0 
11.067 2.587 -0.313 0 0 0 
-3.603 2.575 -0.312 0 0 0 
3.886 2.679 -0.3 0 0 0 
17.445 2.668 -0.299 0 0 0 
-4.446 2.681 -0.301 0 0 0 
-4.389 2.973 -0.307 0 0 0 
-4.381 2.747 -0.308 0 0 0 
3.314 2.739 -0.307 0 0 0 
-4.298 2.747 -0.308 0 0 0 
3.282 2.761 -0.31 0 0 0 
9.362 2.981 -0.308 0 0 0 
17.213 2.786 -0.312 0 0 0 
8.91 2.75 -0.308 0 0 0 
8.873 2.996 -0.31 0 0 0 
11.066 3.001 -0.31 0 0 0 
3.128 2.978 -0.308 0 0 0 
3.231 2.971 -0.307 0 0 0 
-4.447 2.735 -0.307 0 0 0 
-2.695 2.9 -0.3 0 0 0 
3.135 2.732 -0.306 0 0 0 
3.361 2.729 -0.306 0 0 0 
3.678 2.729 -0.306 0 0 0 
3.096 2.897 -0.299 0 0 0 
3.235 2.923 -0.302 0 0 0 
3.316 2.892 -0.299 0 0 0 
3.694 2.691 -0.302 0 0 0 
3.855 2.707 -0.303 0 0 0 
3.758 2.688 -0.301 0 0 0 
3.4 2.712 -0.304 0 0 0 
3.059 2.964 -0.306 0 0 0 
-4.604 2.668 -0.299 0 0 0 
3.935 2.662 -0.298 0 0 0 
-4.618 3.189 -0.301 0 0 0 
-3.534 3.552 -0.304 0 0 0 
-2.873 3.631 -0.311 0 0 0 
-2.81 3.616 -0.31 0 0 0 
2.888 3.278 -0.31 0 0 0 
-2.986 3.577 -0.307 0 0 0 
8.951 3.199 -0.302 0 0 0 
-3.14 3.631 -0.311 0 0 0 
-2.993 3.65 -0.313 0 0 0 
8.677 4.459 -0.304 0 0 0 
9.957 3.961 -0.304 0 0 0 
8.805 4.428 -0.302 0 0 0 
8.699 4.566 -0.311 0 0 0 
-3.572 3.528 -0.302 0 0 0 
-3.092 3.513 -0.301 0 0 0 
8.634 3.878 -0.298 0 0 0 
10.112 3.921 -0.301 0 0 0 
10.286 3.886 -0.299 0 0 0 
-6.921 0.562 -0.298 0 0 0 
-6.924 0.853 -0.219 0 0 0 
-6.919 0.703 -0.283 0 0 0 
-6.906 0.899 -0.273 0 0 0 
-6.894 0.827 -0.292 0 0 0 
-6.891 0.562 -0.291 0 0 0 
-6.869 0.693 -0.293 0 0 0 
-6.885 0.629 -0.292 0 0 0 
-6.899 0.698 -0.288 0 0 0 
-6.895 0.644 -0.259 0 0 0 
-6.895 0.642 -0.265 0 0 0 
-6.871 0.563 -0.286 0 0 0 
-6.845 0.628 -0.285 0 0 0 
-6.861 0.565 -0.28 0 0 0 
-6.851 0.566 -0.275 0 0 0 
-6.865 0.632 -0.28 0 0 0 
-6.885 0.636 -0.275 0 0 0 
-6.885 0.639 -0.27 0 0 0 
-6.866 0.511 -0.254 0 0 0 
-6.841 0.568 -0.27 0 0 0 
-6.841 0.57 -0.265 0 0 0 
-6.841 0.572 -0.26 0 0 0 
-6.821 0.573 -0.254 0 0 0 
-6.885 0.831 -0.277 0 0 0 
-6.904 0.831 -0.285 0 0 0 
-6.887 0.894 -0.28 0 0 0 
-6.887 0.892 -0.288 0 0 0 
-6.867 0.887 -0.295 0 0 0 
-6.894 0.835 -0.27 0 0 0 
-6.855 0.834 -0.254 0 0 0 
-6.855 0.832 -0.261 0 0 0 
-6.915 0.648 -0.254 0 0 0 
-6.915 0.393 -0.226 0 0 0 
-6.906 0.531 -0.219 0 0 0 
-6.906 0.529 -0.223 0 0 0 
-6.895 0.394 -0.222 0 0 0 
-6.876 0.514 -0.25 0 0 0 
-6.841 0.577 -0.25 0 0 0 
-6.866 0.515 -0.245 0 0 0 
-6.871 0.582 -0.246 0 0 0 
-6.891 0.585 -0.241 0 0 0 
-6.889 0.724 -0.213 0 0 0 
-6.881 0.458 -0.227 0 0 0 
-6.846 0.516 -0.24 0 0 0 
-6.836 0.517 -0.235 0 0 0 
-6.861 0.459 -0.223 0 0 0 
-6.851 0.46 -0.218 0 0 0 
-6.866 0.522 -0.231 0 0 0 
-6.885 0.395 -0.218 0 0 0 
-6.865 0.396 -0.214 0 0 0 
-6.855 0.397 -0.21 0 0 0 
-6.851 0.462 -0.214 0 0 0 
-6.841 0.463 -0.21 0 0 0 
-6.886 0.525 -0.227 0 0 0 
-6.885 0.66 -0.213 0 0 0 
-6.905 0.402 -0.208 0 0 0 
-6.909 0.724 -0.22 0 0 0 
-6.902 0.782 -0.238 0 0 0 
-6.855 0.839 -0.239 0 0 0 
-6.845 0.835 -0.246 0 0 0 
-6.875 0.843 -0.232 0 0 0 
-6.862 0.779 -0.229 0 0 0 
-6.842 0.779 -0.222 0 0 0 
-6.885 0.846 -0.225 0 0 0 
-6.906 0.914 -0.218 0 0 0 
-6.852 0.784 -0.209 0 0 0 
-6.832 0.78 -0.215 0 0 0 
-6.916 0.918 -0.21 0 0 0 
-5.103 2.612 -0.293 0 0 0 
-5.043 1.538 -0.296 0 0 0 
-4.662 2.648 -0.297 0 0 0 
-2.923 2.457 -0.297 0 0 0 
9.568 2.145 -0.297 0 0 0 
-3.377 2.646 -0.297 0 0 0 
-4.5 2.879 -0.297 0 0 0 
-4.986 1.617 -0.297 0 0 0 
-4.984 1.866 -0.292 0 0 0 
-4.9 1.686 -0.294 0 0 0 
17.004 1.687 -0.294 0 0 0 
-4.869 1.772 -0.293 0 0 0 
-3.307 2.637 -0.296 0 0 0 
-3.012 2.443 -0.296 0 0 0 
-2.96 2.444 -0.296 0 0 0 
4.061 2.446 -0.296 0 0 0 
3.907 2.447 -0.296 0 0 0 
-4.621 3.132 -0.296 0 0 0 
-4.4 2.602 -0.292 0 0 0 
11.159 1.996 -0.295 0 0 0 
17.316 1.874 -0.293 0 0 0 
11.238 2.422 -0.293 0 0 0 
-2.941 2.258 -0.293 0 0 0 
15.596 2.102 -0.292 0 0 0 
15.694 1.975 -0.292 0 0 0 
-3.042 2.423 -0.293 0 0 0 
-2.916 2.633 -0.295 0 0 0 
-2.767 3.435 -0.294 0 0 0 
-3.408 2.622 -0.294 0 0 0 
2.957 3.419 -0.293 0 0 0 
3.548 2.833 -0.293 0 0 0 
10.125 2.84 -0.293 0 0 0 
8.922 3.102 -0.293 0 0 0 
-6.918 0.96 -0.292 0 0 0 
-5.186 1.591 -0.249 0 0 0 
-5.104 1.714 -0.253 0 0 0 
-5.119 1.67 -0.246 0 0 0 
-5.085 1.71 -0.237 0 0 0 
-5.135 2.574 -0.266 0 0 0 
-5.098 2.668 -0.276 0 0 0 
-5.103 2.614 -0.27 0 0 0 
-5.144 2.581 -0.244 0 0 0 
-5.121 2.626 -0.248 0 0 0 
-5.098 2.67 -0.252 0 0 0 
-5.081 1.655 -0.259 0 0 0 
-5.205 1.599 -0.236 0 0 0 
-5.195 1.598 -0.222 0 0 0 
-5.121 2.628 -0.225 0 0 0 
-5.081 1.554 -0.271 0 0 0 
-5.062 1.644 -0.287 0 0 0 
-5.057 1.595 -0.278 0 0 0 
-4.318 1.437 -0.29 0 0 0 
-4.384 1.464 -0.269 0 0 0 
-4.318 1.439 -0.277 0 0 0 
-5.029 1.583 -0.29 0 0 0 
-5.047 1.69 -0.28 0 0 0 
-4.913 1.74 -0.288 0 0 0 
-5.022 1.882 -0.278 0 0 0 
-4.907 1.788 -0.28 0 0 0 
-4.871 1.678 -0.278 0 0 0 
-4.604 2.671 -0.276 0 0 0 
-3.781 1.759 -0.291 0 0 0 
-3.832 1.743 -0.288 0 0 0 
17.034 1.692 -0.28 0 0 0 
11.495 1.745 -0.289 0 0 0 
-3.835 1.787 -0.28 0 0 0 
-3.129 2.586 -0.29 0 0 0 
3.964 2.583 -0.29 0 0 0 
11.121 2.091 -0.29 0 0 0 
-2.917 2.587 -0.29 0 0 0 
-3.747 2.583 -0.29 0 0 0 
-3.601 2.529 -0.284 0 0 0 
-3.547 2.537 -0.284 0 0 0 
-3.46 2.521 -0.283 0 0 0 
-2.917 2.497 -0.28 0 0 0 
11.281 1.815 -0.284 0 0 0 
17.518 2.054 -0.285 0 0 0 
11.265 1.915 -0.283 0 0 0 
9.626 2.07 -0.287 0 0 0 
9.52 2.223 -0.289 0 0 0 
25.203 2.074 -0.288 0 0 0 
9.324 2.351 -0.284 0 0 0 
3.966 2.487 -0.279 0 0 0 
9.568 2.147 -0.279 0 0 0 
9.636 2.341 -0.283 0 0 0 
-2.961 2.491 -0.279 0 0 0 
4.069 2.454 -0.275 0 0 0 
4.014 2.468 -0.277 0 0 0 
11.189 2.004 -0.278 0 0 0 
17.307 1.875 -0.277 0 0 0 
-3.381 2.509 -0.281 0 0 0 
-2.955 2.575 -0.289 0 0 0 
-3.399 2.569 -0.288 0 0 0 
-3.129 2.54 -0.285 0 0 0 
3.953 2.527 -0.283 0 0 0 
17.425 2.668 -0.276 0 0 0 
-4.68 2.66 -0.275 0 0 0 
-4.229 2.654 -0.274 0 0 0 
9.351 2.447 -0.274 0 0 0 
15.694 1.978 -0.274 0 0 0 
4.134 2.444 -0.274 0 0 0 
15.586 2.104 -0.273 0 0 0 
15.696 2.259 -0.273 0 0 0 
-2.909 2.628 -0.272 0 0 0 
-4.825 2.688 -0.278 0 0 0 
-4.488 2.709 -0.28 0 0 0 
-3.448 2.703 -0.279 0 0 0 
-5.052 1.644 -0.272 0 0 0 
-4.928 1.7 -0.266 0 0 0 
-3.848 1.712 -0.268 0 0 0 
-4.866 1.726 -0.27 0 0 0 
-3.796 1.729 -0.271 0 0 0 
9.547 2.41 -0.27 0 0 0 
-3.392 2.613 -0.27 0 0 0 
25.143 2.072 -0.269 0 0 0 
-3.597 2.623 -0.271 0 0 0 
-3.229 2.624 -0.271 0 0 0 
-4.4 2.604 -0.269 0 0 0 
-3.252 2.596 -0.268 0 0 0 
9.596 2.066 -0.268 0 0 0 
11.202 1.805 -0.266 0 0 0 
17.428 2.046 -0.266 0 0 0 
-2.902 2.577 -0.266 0 0 0 
-5.076 1.702 -0.266 0 0 0 
-5.079 1.761 -0.213 0 0 0 
-5.079 1.759 -0.228 0 0 0 
-5.048 1.596 -0.25 0 0 0 
-5.038 1.597 -0.222 0 0 0 
17.257 1.569 -0.232 0 0 0 
17.208 1.566 -0.217 0 0 0 
-5.019 1.589 -0.235 0 0 0 
-5.067 1.6 -0.265 0 0 0 
-5.062 2.654 -0.227 0 0 0 
-5.033 1.644 -0.228 0 0 0 
-5.033 1.646 -0.214 0 0 0 
-5.051 1.747 -0.242 0 0 0 
-4.995 2.672 -0.252 0 0 0 
-4.975 1.869 -0.243 0 0 0 
-4.977 1.919 -0.249 0 0 0 
-5.016 1.786 -0.232 0 0 0 
-4.995 2.674 -0.229 0 0 0 
-4.975 1.871 -0.226 0 0 0 
-4.975 1.719 -0.254 0 0 0 
-3.875 1.729 -0.24 0 0 0 
-3.848 1.715 -0.253 0 0 0 
17.034 1.695 -0.265 0 0 0 
17.004 1.694 -0.25 0 0 0 
17.024 1.698 -0.235 0 0 0 
-3.832 1.748 -0.258 0 0 0 
-3.89 1.695 -0.235 0 0 0 
9.294 1.75 -0.227 0 0 0 
10.931 1.667 -0.231 0 0 0 
17.014 1.699 -0.221 0 0 0 
-4.932 1.752 -0.259 0 0 0 
-4.926 1.8 -0.25 0 0 0 
-4.958 1.91 -0.265 0 0 0 
-4.966 1.863 -0.258 0 0 0 
-4.954 2.706 -0.256 0 0 0 
-4.926 1.798 -0.265 0 0 0 
-3.569 2.509 -0.259 0 0 0 
-3.433 2.458 -0.254 0 0 0 
9.636 2.343 -0.263 0 0 0 
3.869 2.475 -0.256 0 0 0 
4.022 2.476 -0.256 0 0 0 
11.1 1.991 -0.258 0 0 0 
17.098 1.855 -0.257 0 0 0 
11.206 1.907 -0.265 0 0 0 
25.244 2.305 -0.258 0 0 0 
15.713 1.982 -0.257 0 0 0 
-2.938 2.474 -0.256 0 0 0 
3.848 2.415 -0.25 0 0 0 
15.596 2.107 -0.255 0 0 0 
25.173 2.077 -0.251 0 0 0 
15.686 2.26 -0.253 0 0 0 
9.549 2.234 -0.251 0 0 0 
4.035 2.436 -0.252 0 0 0 
-3.381 2.512 -0.259 0 0 0 
-2.925 2.551 -0.264 0 0 0 
3.914 2.552 -0.264 0 0 0 
-3.383 2.559 -0.264 0 0 0 
-2.932 2.513 -0.26 0 0 0 
8.794 2.55 -0.263 0 0 0 
9.612 2.517 -0.26 0 0 0 
11.177 2.516 -0.26 0 0 0 
-2.909 2.631 -0.249 0 0 0 
-4.535 2.633 -0.249 0 0 0 
-3.699 2.603 -0.246 0 0 0 
4.056 2.401 -0.248 0 0 0 
11.104 1.791 -0.248 0 0 0 
4.12 2.39 -0.247 0 0 0 
11.068 1.886 -0.245 0 0 0 
17.389 2.043 -0.247 0 0 0 
-3.484 2.404 -0.248 0 0 0 
-3.221 2.62 -0.248 0 0 0 
-3.283 2.623 -0.248 0 0 0 
-3.152 2.61 -0.247 0 0 0 
-3.298 2.589 -0.245 0 0 0 
-4.654 2.648 -0.25 0 0 0 
-4.463 2.696 -0.255 0 0 0 
17.385 2.664 -0.252 0 0 0 
-4.246 2.667 -0.252 0 0 0 
-3.151 2.703 -0.255 0 0 0 
-3.638 2.704 -0.255 0 0 0 
-2.923 2.69 -0.254 0 0 0 
-4.512 2.672 -0.252 0 0 0 
-3.037 2.652 -0.251 0 0 0 
3.999 2.66 -0.251 0 0 0 
-4.941 1.757 -0.244 0 0 0 
-4.949 1.911 -0.231 0 0 0 
-4.935 1.805 -0.234 0 0 0 
-3.579 2.565 -0.242 0 0 0 
9.435 1.861 -0.242 0 0 0 
17.247 1.873 -0.243 0 0 0 
11.198 2.01 -0.243 0 0 0 
15.753 1.99 -0.241 0 0 0 
9.578 2.154 -0.241 0 0 0 
-3.281 2.529 -0.239 0 0 0 
9.399 1.941 -0.235 0 0 0 
4.048 2.494 -0.236 0 0 0 
8.127 2.512 -0.237 0 0 0 
9.373 2.282 -0.236 0 0 0 
3.877 2.483 -0.235 0 0 0 
9.598 2.248 -0.232 0 0 0 
4.086 2.469 -0.233 0 0 0 
8.302 2.488 -0.235 0 0 0 
10.985 1.774 -0.23 0 0 0 
11.423 1.949 -0.236 0 0 0 
25.204 2.304 -0.238 0 0 0 
15.596 2.109 -0.236 0 0 0 
15.716 2.267 -0.234 0 0 0 
17.379 2.044 -0.229 0 0 0 
16.239 2.053 -0.23 0 0 0 
25.173 2.079 -0.233 0 0 0 
-3.367 2.549 -0.241 0 0 0 
-2.895 2.572 -0.243 0 0 0 
3.939 2.571 -0.243 0 0 0 
-3.053 2.573 -0.243 0 0 0 
8.804 2.555 -0.241 0 0 0 
-3.323 2.425 -0.229 0 0 0 
-3.509 2.611 -0.224 0 0 0 
-3.275 2.572 -0.22 0 0 0 
4.082 2.418 -0.228 0 0 0 
9.543 1.884 -0.228 0 0 0 
9.43 2.035 -0.228 0 0 0 
3.831 2.407 -0.227 0 0 0 
11.551 1.972 -0.221 0 0 0 
17.138 1.863 -0.225 0 0 0 
12.457 2.129 -0.22 0 0 0 
9.539 2.324 -0.22 0 0 0 
9.372 2.37 -0.224 0 0 0 
14.99 2.566 -0.22 0 0 0 
-2.91 2.587 -0.222 0 0 0 
8.919 2.59 -0.222 0 0 0 
-3.329 2.568 -0.22 0 0 0 
-3.463 2.623 -0.225 0 0 0 
-3.037 2.654 -0.227 0 0 0 
3.902 2.647 -0.227 0 0 0 
-3.076 2.641 -0.226 0 0 0 
-2.902 2.626 -0.225 0 0 0 
-4.57 2.655 -0.228 0 0 0 
3.268 2.708 -0.232 0 0 0 
3.424 2.689 -0.23 0 0 0 
3.71 2.71 -0.232 0 0 0 
3.822 2.691 -0.231 0 0 0 
-4.816 2.687 -0.23 0 0 0 
-4.486 2.659 -0.228 0 0 0 
3.733 2.678 -0.229 0 0 0 
3.862 2.669 -0.229 0 0 0 
17.385 2.666 -0.228 0 0 0 
-2.908 2.678 -0.229 0 0 0 
-5.038 1.696 -0.22 0 0 0 
-5.026 1.791 -0.217 0 0 0 
10.941 1.67 -0.217 0 0 0 
9.156 1.726 -0.209 0 0 0 
-4.954 1.814 -0.219 0 0 0 
-4.923 1.952 -0.219 0 0 0 
3.839 2.507 -0.215 0 0 0 
25.173 2.081 -0.215 0 0 0 
15.567 2.107 -0.218 0 0 0 
25.144 2.3 -0.217 0 0 0 
-3.022 2.504 -0.215 0 0 0 
9.232 1.908 -0.214 0 0 0 
15.706 2.267 -0.214 0 0 0 
11.09 2.5 -0.214 0 0 0 
-3.435 2.51 -0.215 0 0 0 
8.232 2.547 -0.218 0 0 0 
-3.015 2.543 -0.218 0 0 0 
8.427 2.527 -0.217 0 0 0 
-4.94 1.909 -0.214 0 0 0 
-4.947 1.863 -0.209 0 0 0 
9.568 2.243 -0.212 0 0 0 
11.405 2.051 -0.212 0 0 0 
8.112 2.049 -0.212 0 0 0 
8.433 2.21 -0.209 0 0 0 
3.827 2.452 -0.21 0 0 0 
3.937 2.427 -0.208 0 0 0 
4.091 2.425 -0.208 0 0 0 
9.46 2.043 -0.211 0 0 0 
16.16 2.045 -0.211 0 0 0 
17.078 1.859 -0.208 0 0 0 
14.992 2.433 -0.208 0 0 0 
-3.088 2.47 -0.212 0 0 0 
-3.051 2.484 -0.213 0 0 0 
3.26 2.703 -0.208 0 0 0 
3.774 2.709 -0.208 0 0 0 
3.919 2.711 -0.208 0 0 0 
-5.057 1.605 -0.208 0 0 0 
-5.074 2.712 -0.28 0 0 0 
-4.581 3.048 -0.288 0 0 0 
3.622 2.74 -0.283 0 0 0 
3.369 2.738 -0.283 0 0 0 
3.654 2.714 -0.28 0 0 0 
-4.456 2.743 -0.283 0 0 0 
-3.556 3.769 -0.29 0 0 0 
3.573 2.802 -0.289 0 0 0 
3.613 2.783 -0.288 0 0 0 
3.016 3.367 -0.289 0 0 0 
8.586 3.767 -0.29 0 0 0 
-3.991 3.744 -0.288 0 0 0 
-3.589 3.738 -0.287 0 0 0 
3.227 2.766 -0.286 0 0 0 
3.259 2.744 -0.284 0 0 0 
3.839 2.749 -0.284 0 0 0 
3.782 2.759 -0.285 0 0 0 
-3.352 2.773 -0.287 0 0 0 
3.126 2.775 -0.287 0 0 0 
2.849 3.354 -0.287 0 0 0 
3.157 3.009 -0.284 0 0 0 
3.238 2.98 -0.282 0 0 0 
3.109 3.015 -0.285 0 0 0 
2.895 3.289 -0.282 0 0 0 
3.36 2.78 -0.287 0 0 0 
9.174 3.012 -0.285 0 0 0 
17.124 2.774 -0.287 0 0 0 
8.882 3.002 -0.284 0 0 0 
8.825 3.69 -0.284 0 0 0 
8.627 3.696 -0.284 0 0 0 
-3.057 3.664 -0.282 0 0 0 
-4.971 2.713 -0.28 0 0 0 
-4.971 2.717 -0.233 0 0 0 
-4.405 2.714 -0.256 0 0 0 
3.392 2.713 -0.232 0 0 0 
-4.869 2.714 -0.256 0 0 0 
-3.178 3.613 -0.278 0 0 0 
-2.866 3.625 -0.279 0 0 0 
-2.689 2.948 -0.278 0 0 0 
9.248 2.947 -0.278 0 0 0 
9.035 3.232 -0.277 0 0 0 
8.857 3.613 -0.278 0 0 0 
-2.974 3.629 -0.279 0 0 0 
-4.584 2.935 -0.277 0 0 0 
-4.81 2.739 -0.235 0 0 0 
-4.514 2.729 -0.234 0 0 0 
-4.372 2.749 -0.236 0 0 0 
-4.331 2.776 -0.238 0 0 0 
-2.68 2.741 -0.235 0 0 0 
3.267 2.753 -0.26 0 0 0 
3.855 2.763 -0.261 0 0 0 
3.895 2.741 -0.259 0 0 0 
17.045 2.764 -0.261 0 0 0 
10.188 2.765 -0.261 0 0 0 
3.526 2.718 -0.257 0 0 0 
3.566 2.751 -0.236 0 0 0 
3.526 2.767 -0.261 0 0 0 
3.67 2.778 -0.262 0 0 0 
3.814 2.784 -0.263 0 0 0 
3.407 2.772 -0.262 0 0 0 
3.67 2.78 -0.238 0 0 0 
3.259 2.749 -0.236 0 0 0 
3.195 2.792 -0.239 0 0 0 
3.383 2.801 -0.265 0 0 0 
3.21 2.803 -0.265 0 0 0 
3.258 2.797 -0.24 0 0 0 
3.258 2.794 -0.264 0 0 0 
3.758 2.794 -0.264 0 0 0 
-4.181 2.731 -0.234 0 0 0 
-4.307 2.811 -0.266 0 0 0 
-4.439 2.737 -0.234 0 0 0 
3.654 2.718 -0.233 0 0 0 
-4.474 2.815 -0.216 0 0 0 
-4.245 3.047 -0.234 0 0 0 
-2.695 2.902 -0.274 0 0 0 
3.059 2.865 -0.271 0 0 0 
10.164 2.854 -0.27 0 0 0 
3.548 2.835 -0.268 0 0 0 
3.198 2.892 -0.273 0 0 0 
3.178 2.824 -0.267 0 0 0 
-2.649 2.906 -0.249 0 0 0 
3.172 2.922 -0.25 0 0 0 
3.227 2.921 -0.25 0 0 0 
-4.034 2.893 -0.248 0 0 0 
-4.091 2.881 -0.247 0 0 0 
3.037 2.847 -0.244 0 0 0 
10.192 2.864 -0.245 0 0 0 
-3.03 2.84 -0.243 0 0 0 
-2.784 2.85 -0.219 0 0 0 
3.171 2.82 -0.242 0 0 0 
3.288 2.825 -0.217 0 0 0 
-2.53 2.827 -0.217 0 0 0 
3.749 2.843 -0.219 0 0 0 
4.265 2.842 -0.218 0 0 0 
3.193 2.842 -0.218 0 0 0 
-4.067 2.866 -0.22 0 0 0 
4.324 2.878 -0.247 0 0 0 
10.308 2.899 -0.223 0 0 0 
3.027 2.889 -0.222 0 0 0 
-4.231 2.927 -0.225 0 0 0 
-2.776 2.992 -0.256 0 0 0 
-2.664 2.973 -0.255 0 0 0 
9.269 3.045 -0.261 0 0 0 
3.087 2.996 -0.257 0 0 0 
3.121 2.976 -0.255 0 0 0 
9.362 2.986 -0.256 0 0 0 
-4.137 3.024 -0.233 0 0 0 
3.109 3.02 -0.232 0 0 0 
10.177 2.957 -0.227 0 0 0 
3.187 2.937 -0.226 0 0 0 
3.235 2.93 -0.225 0 0 0 
3.391 2.965 -0.228 0 0 0 
9.448 3.015 -0.232 0 0 0 
3.168 2.972 -0.228 0 0 0 
-4.399 2.821 -0.217 0 0 0 
3.782 2.816 -0.216 0 0 0 
-4.549 2.807 -0.216 0 0 0 
-4.531 2.741 -0.211 0 0 0 
-2.494 2.738 -0.21 0 0 0 
3.782 2.765 -0.213 0 0 0 
3.574 2.759 -0.212 0 0 0 
3.455 2.765 -0.213 0 0 0 
-3.066 2.729 -0.21 0 0 0 
3.463 2.722 -0.209 0 0 0 
3.855 2.716 -0.209 0 0 0 
-4.24 2.772 -0.213 0 0 0 
3.305 2.789 -0.214 0 0 0 
3.407 2.776 -0.213 0 0 0 
-4.581 3.05 -0.261 0 0 0 
-3.601 3.559 -0.274 0 0 0 
-3.081 3.565 -0.274 0 0 0 
-3.548 3.569 -0.274 0 0 0 
-2.879 3.577 -0.275 0 0 0 
-4.634 3.203 -0.274 0 0 0 
-4.728 3.21 -0.247 0 0 0 
-4.687 3.179 -0.272 0 0 0 
-3.177 3.427 -0.263 0 0 0 
2.759 3.366 -0.259 0 0 0 
2.877 3.213 -0.247 0 0 0 
3.841 3.127 -0.268 0 0 0 
9.109 3.081 -0.264 0 0 0 
8.941 3.111 -0.267 0 0 0 
2.987 3.396 -0.261 0 0 0 
8.913 3.191 -0.245 0 0 0 
8.978 3.303 -0.254 0 0 0 
2.944 3.407 -0.262 0 0 0 
8.83 3.604 -0.245 0 0 0 
-3.043 3.587 -0.244 0 0 0 
-2.929 3.579 -0.212 0 0 0 
2.718 3.44 -0.234 0 0 0 
2.748 3.416 -0.233 0 0 0 
8.884 3.093 -0.238 0 0 0 
9.1 3.08 -0.237 0 0 0 
9.252 3.314 -0.226 0 0 0 
8.95 3.294 -0.224 0 0 0 
9.364 3.079 -0.237 0 0 0 
2.765 3.376 -0.23 0 0 0 
2.888 3.404 -0.232 0 0 0 
2.897 3.475 -0.237 0 0 0 
2.918 3.378 -0.23 0 0 0 
2.888 3.285 -0.224 0 0 0 
9.128 3.092 -0.211 0 0 0 
10.095 3.127 -0.213 0 0 0 
9.972 3.185 -0.217 0 0 0 
-2.86 3.492 -0.238 0 0 0 
10.568 3.581 -0.212 0 0 0 
-3.14 3.635 -0.248 0 0 0 
-2.929 3.641 -0.248 0 0 0 
-3.66 3.559 -0.211 0 0 0 
8.846 3.082 -0.21 0 0 0 
-3.746 3.641 -0.248 0 0 0 
-3.661 3.684 -0.251 0 0 0 
8.798 3.681 -0.251 0 0 0 
-3.529 3.742 -0.255 0 0 0 
8.761 4.601 -0.273 0 0 0 
9.818 3.908 -0.266 0 0 0 
10.047 3.898 -0.265 0 0 0 
10.343 3.909 -0.266 0 0 0 
11.043 5.32 -0.269 0 0 0 
8.695 4.47 -0.265 0 0 0 
8.616 3.872 -0.264 0 0 0 
8.677 3.809 -0.259 0 0 0 
8.738 3.745 -0.255 0 0 0 
8.805 4.43 -0.263 0 0 0 
-3.7 3.659 -0.249 0 0 0 
-3.707 3.669 -0.218 0 0 0 
-3.633 3.658 -0.217 0 0 0 
8.671 3.899 -0.231 0 0 0 
8.811 3.779 -0.224 0 0 0 
8.908 3.729 -0.221 0 0 0 
8.686 3.815 -0.226 0 0 0 
8.823 4.636 -0.234 0 0 0 
8.801 4.527 -0.229 0 0 0 
9.771 3.891 -0.231 0 0 0 
10.193 3.855 -0.229 0 0 0 
9.935 3.857 -0.229 0 0 0 
8.915 4.391 -0.222 0 0 0 
8.903 4.482 -0.227 0 0 0 
11.133 5.365 -0.224 0 0 0 
-3.608 3.697 -0.219 0 0 0 
-2.961 3.682 -0.218 0 0 0 
9.015 3.682 -0.218 0 0 0 
-6.915 0.175 -0.208 0 0 0 
-6.925 0.222 -0.158 0 0 0 
-6.925 0.671 -0.191 0 0 0 
-6.926 0.922 -0.194 0 0 0 
-6.925 0.689 -0.108 0 0 0 
-6.925 0.405 -0.205 0 0 0 
-6.925 0.257 -0.09 0 0 0 
-6.925 0.184 -0.2 0 0 0 
-1.185 0.143 -0.2 0 0 0 
-1.12 0.124 -0.173 0 0 0 
-1.089 0.126 -0.176 0 0 0 
-1.074 0.107 -0.15 0 0 0 
-1.043 0.11 -0.153 0 0 0 
-1.104 0.139 -0.195 0 0 0 
15.509 0.15 -0.137 0 0 0 
-6.908 0.107 -0.106 0 0 0 
-6.888 0.107 -0.105 0 0 0 
-6.868 0.108 -0.104 0 0 0 
-6.868 0.109 -0.103 0 0 0 
-6.878 0.111 -0.101 0 0 0 
-6.868 0.11 -0.102 0 0 0 
-6.915 0.177 -0.206 0 0 0 
-6.919 0.737 -0.176 0 0 0 
-6.924 0.864 -0.174 0 0 0 
-6.919 0.732 -0.195 0 0 0 
-6.905 0.178 -0.204 0 0 0 
-6.905 0.182 -0.201 0 0 0 
-6.905 0.18 -0.203 0 0 0 
-6.915 0.223 -0.155 0 0 0 
-6.892 0.259 -0.206 0 0 0 
-6.892 0.261 -0.203 0 0 0 
-6.865 0.66 -0.207 0 0 0 
-6.831 0.464 -0.206 0 0 0 
-6.889 0.726 -0.207 0 0 0 
-5.047 1.701 -0.206 0 0 0 
-4.907 1.799 -0.202 0 0 0 
-4.435 2.631 -0.202 0 0 0 
-4.188 3.008 -0.205 0 0 0 
-3.612 3.451 -0.205 0 0 0 
-4.968 2.662 -0.205 0 0 0 
-3.0 2.623 -0.202 0 0 0 
-3.463 2.625 -0.202 0 0 0 
-2.923 2.694 -0.207 0 0 0 
17.044 1.704 -0.206 0 0 0 
10.936 1.572 -0.204 0 0 0 
17.178 1.565 -0.203 0 0 0 
10.254 1.843 -0.207 0 0 0 
17.041 2.006 -0.207 0 0 0 
17.543 2.692 -0.207 0 0 0 
3.959 2.688 -0.207 0 0 0 
-2.909 2.635 -0.203 0 0 0 
3.823 2.403 -0.206 0 0 0 
3.975 2.403 -0.206 0 0 0 
4.138 2.404 -0.206 0 0 0 
9.174 3.018 -0.206 0 0 0 
10.908 2.661 -0.205 0 0 0 
2.992 3.011 -0.205 0 0 0 
-2.903 2.973 -0.202 0 0 0 
9.353 2.367 -0.203 0 0 0 
3.272 2.965 -0.202 0 0 0 
-2.858 3.431 -0.204 0 0 0 
2.687 3.402 -0.202 0 0 0 
2.882 3.398 -0.202 0 0 0 
2.839 3.408 -0.202 0 0 0 
2.767 3.441 -0.204 0 0 0 
3.018 2.985 -0.203 0 0 0 
10.371 3.414 -0.202 0 0 0 
3.224 2.973 -0.202 0 0 0 
2.822 3.448 -0.205 0 0 0 
-6.862 0.787 -0.202 0 0 0 
-6.916 0.919 -0.202 0 0 0 
-6.916 0.559 -0.133 0 0 0 
-6.905 0.224 -0.153 0 0 0 
-6.885 0.225 -0.151 0 0 0 
-6.865 0.226 -0.146 0 0 0 
-6.875 0.226 -0.149 0 0 0 
-6.855 0.227 -0.144 0 0 0 
-6.855 0.23 -0.14 0 0 0 
-6.845 0.231 -0.138 0 0 0 
-6.865 0.234 -0.134 0 0 0 
-6.865 0.235 -0.132 0 0 0 
-6.875 0.236 -0.131 0 0 0 
-6.855 0.232 -0.136 0 0 0 
-6.845 0.228 -0.142 0 0 0 
-6.915 0.239 -0.129 0 0 0 
-6.911 0.481 -0.179 0 0 0 
-6.909 0.343 -0.19 0 0 0 
-6.882 0.263 -0.201 0 0 0 
-6.882 0.288 -0.162 0 0 0 
-6.885 0.665 -0.196 0 0 0 
-6.882 0.287 -0.165 0 0 0 
-6.862 0.264 -0.198 0 0 0 
-6.862 0.265 -0.196 0 0 0 
-6.862 0.283 -0.169 0 0 0 
-6.862 0.284 -0.167 0 0 0 
-6.862 0.269 -0.191 0 0 0 
-6.842 0.266 -0.193 0 0 0 
-6.852 0.275 -0.181 0 0 0 
-6.852 0.281 -0.171 0 0 0 
-6.852 0.27 -0.188 0 0 0 
-6.842 0.271 -0.186 0 0 0 
-6.842 0.273 -0.183 0 0 0 
-6.842 0.278 -0.176 0 0 0 
-6.832 0.276 -0.178 0 0 0 
-6.829 0.343 -0.181 0 0 0 
-6.842 0.279 -0.174 0 0 0 
-6.859 0.343 -0.185 0 0 0 
-6.839 0.346 -0.176 0 0 0 
-6.829 0.344 -0.178 0 0 0 
-6.859 0.349 -0.173 0 0 0 
-6.849 0.35 -0.17 0 0 0 
-6.869 0.352 -0.167 0 0 0 
-6.821 0.465 -0.201 0 0 0 
-6.875 0.662 -0.201 0 0 0 
-6.859 0.353 -0.164 0 0 0 
-6.839 0.354 -0.16 0 0 0 
-6.821 0.467 -0.197 0 0 0 
-6.821 0.469 -0.193 0 0 0 
-6.821 0.472 -0.185 0 0 0 
-6.821 0.474 -0.181 0 0 0 
-6.821 0.47 -0.189 0 0 0 
-6.892 0.29 -0.16 0 0 0 
-6.899 0.728 -0.201 0 0 0 
-6.882 0.791 -0.196 0 0 0 
-6.852 0.789 -0.188 0 0 0 
-6.852 0.792 -0.174 0 0 0 
-6.847 0.915 -0.176 0 0 0 
-6.842 0.789 -0.181 0 0 0 
-6.877 0.917 -0.185 0 0 0 
-5.157 1.591 -0.178 0 0 0 
-5.152 1.637 -0.198 0 0 0 
-5.114 1.627 -0.182 0 0 0 
4.124 2.348 -0.201 0 0 0 
9.072 1.793 -0.201 0 0 0 
9.422 2.122 -0.201 0 0 0 
-4.913 1.95 -0.201 0 0 0 
-5.081 1.665 -0.187 0 0 0 
-5.081 1.667 -0.172 0 0 0 
-5.104 1.723 -0.178 0 0 0 
-5.062 1.657 -0.2 0 0 0 
17.357 1.583 -0.192 0 0 0 
-5.047 1.703 -0.191 0 0 0 
-4.958 1.918 -0.198 0 0 0 
15.547 2.106 -0.199 0 0 0 
-3.329 2.57 -0.198 0 0 0 
9.304 1.755 -0.197 0 0 0 
25.203 2.085 -0.197 0 0 0 
-2.992 2.571 -0.198 0 0 0 
-4.549 2.593 -0.199 0 0 0 
8.57 2.572 -0.198 0 0 0 
10.96 2.573 -0.198 0 0 0 
-4.624 2.582 -0.198 0 0 0 
-4.978 2.557 -0.197 0 0 0 
-5.041 1.751 -0.181 0 0 0 
-5.032 1.746 -0.196 0 0 0 
-4.885 1.743 -0.195 0 0 0 
17.243 1.725 -0.193 0 0 0 
9.18 1.816 -0.188 0 0 0 
9.589 1.811 -0.187 0 0 0 
-4.944 1.814 -0.187 0 0 0 
-4.928 1.859 -0.176 0 0 0 
-4.791 1.711 -0.177 0 0 0 
9.17 1.816 -0.172 0 0 0 
-4.938 1.861 -0.192 0 0 0 
-4.904 1.948 -0.184 0 0 0 
9.144 1.892 -0.195 0 0 0 
3.95 2.485 -0.191 0 0 0 
9.364 2.283 -0.196 0 0 0 
17.118 1.865 -0.193 0 0 0 
17.448 2.056 -0.194 0 0 0 
16.12 2.042 -0.193 0 0 0 
9.549 2.24 -0.192 0 0 0 
15.726 2.272 -0.195 0 0 0 
-3.725 2.482 -0.191 0 0 0 
-3.078 2.42 -0.186 0 0 0 
8.114 2.204 -0.189 0 0 0 
4.091 2.427 -0.187 0 0 0 
8.462 2.22 -0.19 0 0 0 
11.159 2.009 -0.19 0 0 0 
9.127 1.973 -0.186 0 0 0 
3.844 2.371 -0.182 0 0 0 
11.225 1.92 -0.181 0 0 0 
15.666 2.124 -0.182 0 0 0 
4.133 2.355 -0.181 0 0 0 
4.129 2.401 -0.185 0 0 0 
-3.034 2.428 -0.187 0 0 0 
15.2 2.468 -0.19 0 0 0 
-3.02 2.46 -0.189 0 0 0 
4.052 2.452 -0.188 0 0 0 
-3.341 2.488 -0.191 0 0 0 
-3.007 2.538 -0.195 0 0 0 
11.109 2.506 -0.193 0 0 0 
8.118 2.513 -0.193 0 0 0 
3.953 2.535 -0.195 0 0 0 
3.889 2.542 -0.195 0 0 0 
-3.006 2.493 -0.192 0 0 0 
-4.958 1.92 -0.181 0 0 0 
-4.97 2.554 -0.174 0 0 0 
-4.956 2.601 -0.177 0 0 0 
-4.471 2.55 -0.174 0 0 0 
9.266 2.346 -0.18 0 0 0 
9.962 1.883 -0.178 0 0 0 
17.147 1.87 -0.177 0 0 0 
17.548 2.069 -0.177 0 0 0 
25.153 2.082 -0.178 0 0 0 
9.066 1.877 -0.177 0 0 0 
10.308 2.043 -0.175 0 0 0 
15.726 2.273 -0.175 0 0 0 
16.061 2.036 -0.174 0 0 0 
-3.429 2.555 -0.174 0 0 0 
-4.223 2.557 -0.174 0 0 0 
-3.015 2.546 -0.173 0 0 0 
-4.493 2.511 -0.171 0 0 0 
-3.029 2.514 -0.171 0 0 0 
9.293 2.01 -0.172 0 0 0 
11.139 2.007 -0.172 0 0 0 
8.398 2.522 -0.172 0 0 0 
15.525 2.523 -0.172 0 0 0 
-3.794 2.577 -0.176 0 0 0 
-3.008 2.585 -0.176 0 0 0 
3.981 2.604 -0.177 0 0 0 
-4.449 2.588 -0.176 0 0 0 
-4.965 2.604 -0.2 0 0 0 
3.132 2.939 -0.2 0 0 0 
3.376 2.954 -0.201 0 0 0 
2.924 3.388 -0.201 0 0 0 
3.417 2.937 -0.2 0 0 0 
8.771 3.946 -0.2 0 0 0 
-4.483 2.607 -0.2 0 0 0 
-4.365 2.801 -0.191 0 0 0 
-4.426 2.627 -0.179 0 0 0 
-4.286 2.646 -0.18 0 0 0 
-4.332 2.834 -0.193 0 0 0 
-4.508 2.838 -0.193 0 0 0 
-4.567 2.876 -0.171 0 0 0 
-4.685 3.008 -0.178 0 0 0 
-4.524 2.961 -0.176 0 0 0 
-4.182 2.895 -0.197 0 0 0 
3.452 2.864 -0.195 0 0 0 
3.749 2.844 -0.194 0 0 0 
4.265 2.843 -0.194 0 0 0 
3.724 2.877 -0.196 0 0 0 
-3.03 2.844 -0.194 0 0 0 
-3.439 2.609 -0.178 0 0 0 
-2.573 2.777 -0.189 0 0 0 
-3.044 2.711 -0.185 0 0 0 
-3.0 2.625 -0.179 0 0 0 
-2.996 2.763 -0.188 0 0 0 
-2.976 2.697 -0.184 0 0 0 
-2.759 2.877 -0.171 0 0 0 
-2.524 2.821 -0.192 0 0 0 
10.85 2.649 -0.18 0 0 0 
-2.421 2.659 -0.181 0 0 0 
3.758 2.8 -0.191 0 0 0 
3.565 2.804 -0.191 0 0 0 
3.267 2.759 -0.188 0 0 0 
3.415 2.784 -0.19 0 0 0 
3.806 2.734 -0.186 0 0 0 
3.822 2.695 -0.184 0 0 0 
3.702 2.708 -0.184 0 0 0 
3.878 2.684 -0.183 0 0 0 
3.926 2.667 -0.182 0 0 0 
17.454 2.68 -0.183 0 0 0 
3.439 2.754 -0.188 0 0 0 
10.256 2.79 -0.19 0 0 0 
-4.083 2.879 -0.196 0 0 0 
3.283 2.923 -0.199 0 0 0 
-3.984 2.914 -0.198 0 0 0 
-3.603 3.505 -0.177 0 0 0 
-3.886 2.897 -0.172 0 0 0 
-3.935 2.881 -0.171 0 0 0 
-4.058 2.916 -0.173 0 0 0 
-2.854 3.488 -0.176 0 0 0 
-3.572 3.537 -0.179 0 0 0 
-3.608 3.699 -0.187 0 0 0 
-3.548 3.575 -0.181 0 0 0 
-3.101 3.659 -0.185 0 0 0 
-2.854 3.552 -0.18 0 0 0 
-3.005 3.609 -0.182 0 0 0 
-2.766 2.883 -0.196 0 0 0 
-2.577 2.882 -0.171 0 0 0 
8.96 3.3 -0.196 0 0 0 
3.048 3.07 -0.182 0 0 0 
2.247 2.897 -0.172 0 0 0 
3.15 2.907 -0.172 0 0 0 
3.147 2.955 -0.175 0 0 0 
3.089 3.057 -0.181 0 0 0 
2.717 3.38 -0.171 0 0 0 
3.272 2.967 -0.176 0 0 0 
3.316 2.903 -0.172 0 0 0 
3.357 2.991 -0.177 0 0 0 
2.987 3.401 -0.172 0 0 0 
2.816 3.442 -0.174 0 0 0 
8.695 3.821 -0.193 0 0 0 
9.926 3.855 -0.195 0 0 0 
10.212 3.864 -0.195 0 0 0 
9.45 3.294 -0.195 0 0 0 
8.793 3.773 -0.191 0 0 0 
8.801 4.529 -0.189 0 0 0 
8.913 3.194 -0.189 0 0 0 
9.335 3.719 -0.188 0 0 0 
10.019 3.202 -0.19 0 0 0 
9.07 3.706 -0.187 0 0 0 
9.97 3.09 -0.183 0 0 0 
10.447 3.44 -0.174 0 0 0 
10.433 2.937 -0.174 0 0 0 
10.729 3.637 -0.184 0 0 0 
9.01 3.773 -0.191 0 0 0 
8.93 4.497 -0.188 0 0 0 
8.96 4.415 -0.185 0 0 0 
8.823 4.638 -0.194 0 0 0 
10.553 5.667 -0.187 0 0 0 
11.223 5.41 -0.179 0 0 0 
-6.848 0.978 -0.171 0 0 0 
-3.043 2.481 -0.169 0 0 0 
3.708 2.866 -0.17 0 0 0 
8.124 2.208 -0.17 0 0 0 
11.041 2.493 -0.17 0 0 0 
3.886 2.494 -0.17 0 0 0 
4.265 2.845 -0.169 0 0 0 
3.437 2.853 -0.169 0 0 0 
3.039 3.342 -0.169 0 0 0 
3.003 3.36 -0.17 0 0 0 
-6.899 0.736 -0.169 0 0 0 
-6.875 0.859 -0.165 0 0 0 
-6.869 0.735 -0.161 0 0 0 
-6.847 0.917 -0.168 0 0 0 
-5.105 1.625 -0.168 0 0 0 
-4.506 2.467 -0.168 0 0 0 
3.517 2.818 -0.167 0 0 0 
8.41 2.446 -0.167 0 0 0 
8.259 2.168 -0.167 0 0 0 
3.573 2.812 -0.167 0 0 0 
9.205 3.301 -0.167 0 0 0 
3.273 2.815 -0.167 0 0 0 
3.068 3.315 -0.168 0 0 0 
9.792 4.003 -0.167 0 0 0 
-4.804 1.764 -0.167 0 0 0 
-6.862 0.795 -0.167 0 0 0 
-6.862 0.796 -0.16 0 0 0 
-6.837 0.917 -0.16 0 0 0 
-6.858 0.981 -0.162 0 0 0 
-5.013 1.743 -0.165 0 0 0 
-4.94 1.914 -0.164 0 0 0 
-4.886 1.942 -0.166 0 0 0 
3.857 2.428 -0.165 0 0 0 
9.528 2.414 -0.164 0 0 0 
4.065 2.413 -0.164 0 0 0 
-3.042 2.435 -0.166 0 0 0 
-2.986 2.804 -0.166 0 0 0 
4.035 2.443 -0.166 0 0 0 
4.116 2.798 -0.166 0 0 0 
3.431 2.798 -0.166 0 0 0 
3.09 3.281 -0.166 0 0 0 
8.627 3.974 -0.166 0 0 0 
-3.667 2.444 -0.166 0 0 0 
-3.018 2.785 -0.165 0 0 0 
3.662 2.779 -0.165 0 0 0 
9.29 3.24 -0.164 0 0 0 
8.857 3.263 -0.165 0 0 0 
3.154 3.234 -0.164 0 0 0 
3.133 3.268 -0.165 0 0 0 
-5.148 1.59 -0.164 0 0 0 
-5.038 1.702 -0.161 0 0 0 
-4.819 1.722 -0.163 0 0 0 
9.756 1.845 -0.158 0 0 0 
17.044 1.709 -0.161 0 0 0 
-4.919 1.857 -0.159 0 0 0 
-3.068 2.37 -0.161 0 0 0 
-3.039 2.39 -0.163 0 0 0 
3.818 2.357 -0.161 0 0 0 
15.646 2.123 -0.163 0 0 0 
8.441 2.375 -0.162 0 0 0 
17.217 1.879 -0.161 0 0 0 
4.086 2.377 -0.162 0 0 0 
9.086 1.883 -0.161 0 0 0 
-2.468 2.712 -0.161 0 0 0 
-2.525 2.727 -0.162 0 0 0 
3.855 2.719 -0.161 0 0 0 
3.221 2.722 -0.161 0 0 0 
8.616 3.878 -0.162 0 0 0 
9.991 3.194 -0.162 0 0 0 
8.851 3.891 -0.163 0 0 0 
9.771 3.895 -0.163 0 0 0 
10.324 3.908 -0.163 0 0 0 
10.047 3.904 -0.163 0 0 0 
3.798 2.729 -0.162 0 0 0 
-2.563 2.719 -0.161 0 0 0 
-3.044 2.712 -0.161 0 0 0 
-2.311 2.677 -0.159 0 0 0 
3.895 2.697 -0.16 0 0 0 
4.124 2.352 -0.16 0 0 0 
17.553 2.697 -0.16 0 0 0 
3.598 2.682 -0.159 0 0 0 
10.879 2.657 -0.158 0 0 0 
-2.294 2.705 -0.16 0 0 0 
8.876 3.81 -0.159 0 0 0 
-6.912 0.292 -0.158 0 0 0 
-6.912 0.295 -0.153 0 0 0 
-6.912 0.296 -0.15 0 0 0 
-6.912 0.293 -0.155 0 0 0 
-6.876 0.552 -0.147 0 0 0 
-6.862 0.295 -0.147 0 0 0 
-6.829 0.355 -0.157 0 0 0 
-6.829 0.356 -0.154 0 0 0 
-6.829 0.357 -0.151 0 0 0 
-6.819 0.358 -0.148 0 0 0 
-6.901 0.492 -0.145 0 0 0 
-6.892 0.31 -0.115 0 0 0 
-6.852 0.296 -0.144 0 0 0 
-6.809 0.359 -0.144 0 0 0 
-6.849 0.364 -0.136 0 0 0 
-6.852 0.304 -0.125 0 0 0 
-6.882 0.309 -0.118 0 0 0 
-6.872 0.307 -0.121 0 0 0 
-6.859 0.367 -0.129 0 0 0 
-6.869 0.369 -0.126 0 0 0 
-6.879 0.371 -0.123 0 0 0 
-6.849 0.366 -0.132 0 0 0 
-6.842 0.305 -0.123 0 0 0 
-6.861 0.492 -0.135 0 0 0 
-6.842 0.297 -0.141 0 0 0 
-6.832 0.298 -0.138 0 0 0 
-6.832 0.3 -0.133 0 0 0 
-6.832 0.301 -0.13 0 0 0 
-6.832 0.302 -0.128 0 0 0 
-6.832 0.299 -0.136 0 0 0 
-6.819 0.36 -0.141 0 0 0 
-6.819 0.362 -0.138 0 0 0 
-6.841 0.491 -0.131 0 0 0 
-6.831 0.492 -0.126 0 0 0 
-6.811 0.492 -0.117 0 0 0 
-6.821 0.492 -0.122 0 0 0 
-6.891 0.492 -0.14 0 0 0 
-6.821 0.494 -0.113 0 0 0 
-6.906 0.553 -0.152 0 0 0 
-6.901 0.616 -0.152 0 0 0 
-6.839 0.733 -0.154 0 0 0 
-6.831 0.611 -0.145 0 0 0 
-6.809 0.731 -0.147 0 0 0 
-6.842 0.795 -0.153 0 0 0 
-6.845 0.856 -0.157 0 0 0 
-5.067 1.615 -0.153 0 0 0 
-4.544 2.645 -0.157 0 0 0 
3.613 2.644 -0.157 0 0 0 
16.12 2.045 -0.157 0 0 0 
-4.277 2.642 -0.157 0 0 0 
-2.916 2.644 -0.157 0 0 0 
8.964 3.756 -0.157 0 0 0 
-5.052 1.659 -0.157 0 0 0 
-4.879 1.793 -0.154 0 0 0 
-4.306 2.557 -0.152 0 0 0 
-3.023 2.6 -0.154 0 0 0 
-3.683 2.598 -0.154 0 0 0 
-3.375 2.562 -0.152 0 0 0 
-3.022 2.554 -0.152 0 0 0 
15.676 2.268 -0.154 0 0 0 
3.905 2.556 -0.152 0 0 0 
-3.007 2.633 -0.156 0 0 0 
-4.489 2.561 -0.152 0 0 0 
-4.701 3.02 -0.153 0 0 0 
3.034 3.057 -0.155 0 0 0 
-3.005 3.675 -0.154 0 0 0 
8.753 4.602 -0.152 0 0 0 
-6.847 0.919 -0.152 0 0 0 
-6.842 0.797 -0.146 0 0 0 
-6.835 0.857 -0.149 0 0 0 
-5.109 1.579 -0.149 0 0 0 
-4.99 1.688 -0.145 0 0 0 
-4.952 2.546 -0.151 0 0 0 
9.069 1.963 -0.151 0 0 0 
-4.189 2.538 -0.151 0 0 0 
-2.624 2.989 -0.151 0 0 0 
3.35 2.986 -0.151 0 0 0 
2.494 2.995 -0.151 0 0 0 
11.452 4.566 -0.151 0 0 0 
-2.863 2.987 -0.151 0 0 0 
-5.051 1.757 -0.151 0 0 0 
-4.983 2.507 -0.149 0 0 0 
