# .PCD v0.7 - Point Cloud Data file format
VERSION 0.7
FIELDS x y z r g b
SIZE 4 4 4 1 1 1
TYPE F F F I I I
COUNT 1 1 1 1 1 1
WIDTH 1749
HEIGHT 1
VIEWPOINT 0 0 0 1 0 0 0
POINTS 1749
DATA ascii
-8.589 -0.492 -1.227 0 0 0 
-7.292 -0.491 -1.224 0 0 0 
-6.848 -0.495 -1.202 0 0 0 
-0.929 -0.553 -1.22 0 0 0 
-1.732 -0.543 -1.226 0 0 0 
-3.334 -0.517 -1.226 0 0 0 
-3.172 -0.517 -1.226 0 0 0 
-3.096 -0.517 -1.226 0 0 0 
-2.954 -0.517 -1.226 0 0 0 
-4.036 -0.517 -1.226 0 0 0 
-3.249 -0.516 -1.225 0 0 0 
-3.021 -0.516 -1.225 0 0 0 
-4.152 -0.516 -1.225 0 0 0 
-1.375 -0.542 -1.225 0 0 0 
-1.261 -0.542 -1.226 0 0 0 
-1.217 -0.542 -1.225 0 0 0 
-1.967 -0.542 -1.225 0 0 0 
-2.643 -0.528 -1.223 0 0 0 
-4.269 -0.515 -1.221 0 0 0 
-1.895 -0.542 -1.224 0 0 0 
-1.526 -0.542 -1.224 0 0 0 
-1.5 -0.542 -1.224 0 0 0 
-1.553 -0.541 -1.224 0 0 0 
-1.859 -0.541 -1.224 0 0 0 
-1.759 -0.541 -1.223 0 0 0 
-1.447 -0.541 -1.223 0 0 0 
-1.607 -0.541 -1.222 0 0 0 
-1.58 -0.541 -1.223 0 0 0 
-1.661 -0.539 -1.219 0 0 0 
-0.982 -0.552 -1.219 0 0 0 
-0.999 -0.552 -1.219 0 0 0 
-1.21 -0.55 -1.214 0 0 0 
-1.815 -0.538 -1.217 0 0 0 
-1.987 -0.537 -1.214 0 0 0 
-1.914 -0.537 -1.215 0 0 0 
-2.682 -0.524 -1.214 0 0 0 
-1.779 -0.537 -1.215 0 0 0 
-1.317 -0.537 -1.214 0 0 0 
-0.86 -0.552 -1.218 0 0 0 
-0.848 -0.555 -1.225 0 0 0 
0.866 -0.555 -1.226 0 0 0 
1.18 -0.555 -1.226 0 0 0 
-0.256 -0.555 -1.226 0 0 0 
-0.207 -0.555 -1.224 0 0 0 
0.112 -0.555 -1.225 0 0 0 
0.207 -0.555 -1.224 0 0 0 
0.124 -0.555 -1.225 0 0 0 
-0.456 -0.555 -1.225 0 0 0 
-0.064 -0.542 -1.224 0 0 0 
-0.053 -0.542 -1.224 0 0 0 
-0.041 -0.542 -1.225 0 0 0 
0.159 -0.542 -1.226 0 0 0 
1.261 -0.542 -1.226 0 0 0 
0.468 -0.542 -1.226 0 0 0 
-0.029 -0.542 -1.225 0 0 0 
-0.018 -0.542 -1.225 0 0 0 
0.053 -0.542 -1.224 0 0 0 
0.041 -0.542 -1.225 0 0 0 
0.17 -0.542 -1.225 0 0 0 
1.375 -0.542 -1.225 0 0 0 
1.669 -0.542 -1.225 0 0 0 
1.931 -0.542 -1.225 0 0 0 
1.967 -0.542 -1.225 0 0 0 
0.242 -0.542 -1.224 0 0 0 
0.291 -0.542 -1.224 0 0 0 
0.029 -0.542 -1.225 0 0 0 
3.344 -0.529 -1.225 0 0 0 
-0.831 -0.554 -1.224 0 0 0 
-0.814 -0.554 -1.223 0 0 0 
-0.219 -0.554 -1.223 0 0 0 
1.428 -0.554 -1.223 0 0 0 
0.147 -0.554 -1.222 0 0 0 
-0.549 -0.554 -1.222 0 0 0 
-0.495 -0.554 -1.222 0 0 0 
-0.604 -0.553 -1.221 0 0 0 
-0.279 -0.553 -1.222 0 0 0 
0.328 -0.553 -1.221 0 0 0 
1.155 -0.553 -1.221 0 0 0 
1.261 -0.553 -1.221 0 0 0 
0.159 -0.553 -1.221 0 0 0 
-0.159 -0.553 -1.221 0 0 0 
-0.403 -0.553 -1.221 0 0 0 
-0.468 -0.553 -1.221 0 0 0 
-0.088 -0.541 -1.223 0 0 0 
0.076 -0.541 -1.223 0 0 0 
0.088 -0.541 -1.223 0 0 0 
0.182 -0.541 -1.223 0 0 0 
0.377 -0.541 -1.223 0 0 0 
0.099 -0.541 -1.222 0 0 0 
0.302 -0.541 -1.222 0 0 0 
1.279 -0.541 -1.222 0 0 0 
1.349 -0.541 -1.223 0 0 0 
7.331 -0.515 -1.222 0 0 0 
4.036 -0.528 -1.222 0 0 0 
-0.099 -0.541 -1.222 0 0 0 
0.453 -0.54 -1.221 0 0 0 
2.289 -0.54 -1.221 0 0 0 
1.634 -0.54 -1.221 0 0 0 
-0.798 -0.553 -1.221 0 0 0 
-0.764 -0.552 -1.218 0 0 0 
-0.748 -0.551 -1.216 0 0 0 
-0.731 -0.55 -1.214 0 0 0 
-0.719 -0.553 -1.22 0 0 0 
0.041 -0.553 -1.22 0 0 0 
0.053 -0.553 -1.22 0 0 0 
1.095 -0.553 -1.22 0 0 0 
1.217 -0.553 -1.22 0 0 0 
0.964 -0.553 -1.22 0 0 0 
0.675 -0.553 -1.22 0 0 0 
-0.442 -0.553 -1.22 0 0 0 
-0.675 -0.553 -1.22 0 0 0 
-0.242 -0.552 -1.219 0 0 0 
0.894 -0.552 -1.219 0 0 0 
1.526 -0.552 -1.219 0 0 0 
1.113 -0.552 -1.219 0 0 0 
0.999 -0.552 -1.219 0 0 0 
0.064 -0.552 -1.219 0 0 0 
0.076 -0.552 -1.219 0 0 0 
0.351 -0.54 -1.22 0 0 0 
2.243 -0.54 -1.22 0 0 0 
4.152 -0.527 -1.22 0 0 0 
4.414 -0.527 -1.22 0 0 0 
4.56 -0.527 -1.22 0 0 0 
4.278 -0.527 -1.22 0 0 0 
0.389 -0.54 -1.22 0 0 0 
0.427 -0.54 -1.219 0 0 0 
4.706 -0.526 -1.219 0 0 0 
-0.631 -0.552 -1.219 0 0 0 
-0.561 -0.552 -1.218 0 0 0 
-0.659 -0.551 -1.217 0 0 0 
-0.588 -0.551 -1.217 0 0 0 
-0.703 -0.551 -1.217 0 0 0 
-0.643 -0.55 -1.214 0 0 0 
-0.615 -0.551 -1.216 0 0 0 
-0.534 -0.552 -1.218 0 0 0 
0.182 -0.552 -1.218 0 0 0 
0.764 -0.552 -1.218 0 0 0 
1.017 -0.552 -1.218 0 0 0 
0.561 -0.552 -1.218 0 0 0 
0.088 -0.552 -1.218 0 0 0 
-0.182 -0.552 -1.218 0 0 0 
-0.302 -0.551 -1.217 0 0 0 
1.035 -0.551 -1.217 0 0 0 
1.823 -0.551 -1.217 0 0 0 
1.235 -0.551 -1.217 0 0 0 
0.194 -0.551 -1.217 0 0 0 
0.099 -0.551 -1.217 0 0 0 
-0.146 -0.539 -1.218 0 0 0 
0.217 -0.539 -1.218 0 0 0 
0.363 -0.539 -1.218 0 0 0 
0.277 -0.539 -1.218 0 0 0 
0.326 -0.538 -1.217 0 0 0 
4.863 -0.526 -1.217 0 0 0 
-0.194 -0.551 -1.217 0 0 0 
-0.265 -0.55 -1.215 0 0 0 
-0.427 -0.55 -1.215 0 0 0 
-0.518 -0.55 -1.214 0 0 0 
-0.111 -0.551 -1.216 0 0 0 
1.324 -0.551 -1.216 0 0 0 
0.748 -0.551 -1.216 0 0 0 
1.787 -0.551 -1.215 0 0 0 
0.351 -0.551 -1.216 0 0 0 
-0.006 -0.538 -1.216 0 0 0 
0.064 -0.538 -1.215 0 0 0 
0.438 -0.538 -1.216 0 0 0 
0.337 -0.537 -1.214 0 0 0 
1.07 -0.55 -1.215 0 0 0 
2.373 -0.538 -1.215 0 0 0 
2.327 -0.538 -1.216 0 0 0 
5.029 -0.525 -1.215 0 0 0 
5.842 -0.524 -1.214 0 0 0 
2.42 -0.537 -1.214 0 0 0 
0.731 -0.55 -1.214 0 0 0 
0.631 -0.563 -1.214 0 0 0 
-0.205 -0.561 -1.211 0 0 0 
-1.229 -0.548 -1.211 0 0 0 
-1.272 -0.548 -1.211 0 0 0 
-2.795 -0.523 -1.21 0 0 0 
-2.729 -0.522 -1.208 0 0 0 
-2.143 -0.537 -1.213 0 0 0 
-2.061 -0.536 -1.212 0 0 0 
-1.291 -0.536 -1.212 0 0 0 
-2.015 -0.535 -1.208 0 0 0 
-1.247 -0.547 -1.208 0 0 0 
-0.941 -0.549 -1.213 0 0 0 
-0.326 -0.549 -1.212 0 0 0 
0.229 -0.549 -1.212 0 0 0 
0.401 -0.549 -1.212 0 0 0 
-0.229 -0.549 -1.212 0 0 0 
-0.006 -0.549 -1.211 0 0 0 
-0.872 -0.549 -1.211 0 0 0 
-0.906 -0.549 -1.212 0 0 0 
-0.337 -0.548 -1.21 0 0 0 
0.337 -0.548 -1.21 0 0 0 
0.289 -0.548 -1.211 0 0 0 
0.252 -0.537 -1.213 0 0 0 
0.263 -0.536 -1.211 0 0 0 
0.312 -0.536 -1.211 0 0 0 
-0.503 -0.548 -1.21 0 0 0 
-0.476 -0.548 -1.209 0 0 0 
-0.277 -0.56 -1.208 0 0 0 
-0.743 -0.558 -1.203 0 0 0 
-1.291 -0.547 -1.207 0 0 0 
-1.458 -0.547 -1.207 0 0 0 
-2.56 -0.534 -1.206 0 0 0 
-2.505 -0.533 -1.205 0 0 0 
-2.402 -0.533 -1.205 0 0 0 
-3.565 -0.522 -1.207 0 0 0 
-2.089 -0.533 -1.205 0 0 0 
-2.171 -0.533 -1.205 0 0 0 
-1.335 -0.546 -1.206 0 0 0 
-1.1 -0.546 -1.205 0 0 0 
-0.952 -0.546 -1.205 0 0 0 
-1.082 -0.546 -1.206 0 0 0 
-1.618 -0.546 -1.205 0 0 0 
-2.255 -0.532 -1.202 0 0 0 
-2.347 -0.532 -1.202 0 0 0 
-2.449 -0.532 -1.203 0 0 0 
-3.97 -0.519 -1.202 0 0 0 
-3.854 -0.519 -1.201 0 0 0 
-3.748 -0.519 -1.202 0 0 0 
-3.652 -0.52 -1.204 0 0 0 
-2.842 -0.52 -1.203 0 0 0 
-2.909 -0.52 -1.203 0 0 0 
-2.975 -0.519 -1.202 0 0 0 
-4.086 -0.519 -1.201 0 0 0 
-1.87 -0.545 -1.204 0 0 0 
-1.309 -0.545 -1.203 0 0 0 
-1.005 -0.545 -1.204 0 0 0 
-1.179 -0.545 -1.203 0 0 0 
-1.38 -0.545 -1.203 0 0 0 
-1.058 -0.544 -1.201 0 0 0 
-1.477 -0.544 -1.201 0 0 0 
-0.424 -0.557 -1.201 0 0 0 
-0.312 -0.546 -1.206 0 0 0 
-0.726 -0.557 -1.201 0 0 0 
-0.289 -0.559 -1.206 0 0 0 
-0.017 -0.559 -1.207 0 0 0 
-0.133 -0.546 -1.205 0 0 0 
0.099 -0.558 -1.203 0 0 0 
0.541 -0.546 -1.206 0 0 0 
0.215 -0.546 -1.205 0 0 0 
0.312 -0.546 -1.206 0 0 0 
0.462 -0.545 -1.204 0 0 0 
-0.192 -0.558 -1.203 0 0 0 
-0.063 -0.544 -1.201 0 0 0 
-0.04 -0.544 -1.202 0 0 0 
0.204 -0.557 -1.202 0 0 0 
0.435 -0.545 -1.202 0 0 0 
0.372 -0.544 -1.201 0 0 0 
0.5 -0.544 -1.201 0 0 0 
0.526 -0.544 -1.201 0 0 0 
0.615 -0.562 -1.211 0 0 0 
1.035 -0.562 -1.212 0 0 0 
0.731 -0.561 -1.209 0 0 0 
0.776 -0.549 -1.212 0 0 0 
1.439 -0.549 -1.212 0 0 0 
1.572 -0.549 -1.212 0 0 0 
1.545 -0.549 -1.213 0 0 0 
1.387 -0.548 -1.209 0 0 0 
1.878 -0.548 -1.209 0 0 0 
2.024 -0.548 -1.209 0 0 0 
1.914 -0.548 -1.21 0 0 0 
5.205 -0.524 -1.213 0 0 0 
5.607 -0.524 -1.212 0 0 0 
6.078 -0.523 -1.212 0 0 0 
6.354 -0.524 -1.213 0 0 0 
2.466 -0.536 -1.212 0 0 0 
2.513 -0.535 -1.209 0 0 0 
2.625 -0.535 -1.21 0 0 0 
2.936 -0.535 -1.209 0 0 0 
3.078 -0.535 -1.209 0 0 0 
2.804 -0.535 -1.209 0 0 0 
2.682 -0.535 -1.209 0 0 0 
5.391 -0.523 -1.211 0 0 0 
6.62 -0.522 -1.209 0 0 0 
0.838 -0.548 -1.209 0 0 0 
0.643 -0.561 -1.209 0 0 0 
0.671 -0.56 -1.207 0 0 0 
0.941 -0.56 -1.208 0 0 0 
0.776 -0.56 -1.207 0 0 0 
0.804 -0.547 -1.207 0 0 0 
0.821 -0.547 -1.208 0 0 0 
2.143 -0.547 -1.208 0 0 0 
1.842 -0.547 -1.208 0 0 0 
1.743 -0.547 -1.207 0 0 0 
2.061 -0.547 -1.207 0 0 0 
1.291 -0.547 -1.207 0 0 0 
2.738 -0.534 -1.208 0 0 0 
3.002 -0.535 -1.208 0 0 0 
3.23 -0.535 -1.208 0 0 0 
0.993 -0.559 -1.207 0 0 0 
0.743 -0.558 -1.203 0 0 0 
0.698 -0.558 -1.204 0 0 0 
1.04 -0.544 -1.202 0 0 0 
1.118 -0.545 -1.203 0 0 0 
0.682 -0.557 -1.202 0 0 0 
0.787 -0.557 -1.201 0 0 0 
1.082 -0.557 -1.201 0 0 0 
1.185 -0.559 -1.205 0 0 0 
1.432 -0.557 -1.201 0 0 0 
1.204 -0.557 -1.202 0 0 0 
2.56 -0.534 -1.206 0 0 0 
2.861 -0.534 -1.206 0 0 0 
3.307 -0.534 -1.206 0 0 0 
3.145 -0.534 -1.206 0 0 0 
1.592 -0.546 -1.206 0 0 0 
1.265 -0.545 -1.204 0 0 0 
1.354 -0.544 -1.201 0 0 0 
1.477 -0.544 -1.201 0 0 0 
1.618 -0.546 -1.205 0 0 0 
2.18 -0.546 -1.205 0 0 0 
1.708 -0.546 -1.205 0 0 0 
2.097 -0.546 -1.205 0 0 0 
3.383 -0.532 -1.203 0 0 0 
3.469 -0.532 -1.202 0 0 0 
3.565 -0.532 -1.203 0 0 0 
3.661 -0.532 -1.202 0 0 0 
6.916 -0.521 -1.205 0 0 0 
1.673 -0.544 -1.201 0 0 0 
-4.531 -0.513 -1.217 0 0 0 
-6.039 -0.499 -1.213 0 0 0 
-5.813 -0.49 -1.221 0 0 0 
-4.62 -0.496 -1.205 0 0 0 
7.658 -0.511 -1.212 0 0 0 
8.103 -0.502 -1.22 0 0 0 
9.095 -0.491 -1.224 0 0 0 
8.48 -0.497 -1.207 0 0 0 
-4.338 -0.507 -1.203 0 0 0 
-9.055 -0.489 -1.219 0 0 0 
-6.305 -0.488 -1.217 0 0 0 
9.611 -0.487 -1.214 0 0 0 
-4.639 -0.487 -1.214 0 0 0 
-5.195 -0.47 -1.233 0 0 0 
-4.658 -0.478 -1.224 0 0 0 
-4.795 -0.454 -1.226 0 0 0 
-4.678 -0.47 -1.233 0 0 0 
11.043 -0.465 -1.221 0 0 0 
11.988 -0.456 -1.231 0 0 0 
10.257 -0.475 -1.215 0 0 0 
-4.747 -0.461 -1.209 0 0 0 
11.809 -0.46 -1.209 0 0 0 
-5.304 -0.473 -1.209 0 0 0 
-7.995 -0.485 -1.208 0 0 0 
-5.519 -0.484 -1.206 0 0 0 
-4.884 -0.458 -1.202 0 0 0 
-10.854 -0.457 -1.201 0 0 0 
-10.089 -0.478 -1.191 0 0 0 
-8.401 -0.492 -1.196 0 0 0 
-0.568 -0.557 -1.2 0 0 0 
-3.451 -0.518 -1.2 0 0 0 
-3.117 -0.518 -1.2 0 0 0 
-0.215 -0.556 -1.2 0 0 0 
0.409 -0.544 -1.2 0 0 0 
-0.9 -0.556 -1.2 0 0 0 
-0.816 -0.554 -1.196 0 0 0 
-1.398 -0.543 -1.198 0 0 0 
-1.665 -0.542 -1.196 0 0 0 
-3.041 -0.518 -1.199 0 0 0 
-3.193 -0.518 -1.199 0 0 0 
-3.355 -0.517 -1.198 0 0 0 
-2.599 -0.53 -1.198 0 0 0 
-4.202 -0.517 -1.198 0 0 0 
-3.269 -0.517 -1.197 0 0 0 
-2.2 -0.53 -1.197 0 0 0 
-1.638 -0.542 -1.197 0 0 0 
-1.79 -0.542 -1.196 0 0 0 
-2.768 -0.528 -1.194 0 0 0 
-2.283 -0.528 -1.193 0 0 0 
-4.464 -0.516 -1.195 0 0 0 
-1.89 -0.541 -1.194 0 0 0 
-1.576 -0.541 -1.194 0 0 0 
-1.549 -0.541 -1.195 0 0 0 
-1.523 -0.541 -1.195 0 0 0 
-1.129 -0.541 -1.194 0 0 0 
-1.496 -0.541 -1.195 0 0 0 
-1.755 -0.541 -1.194 0 0 0 
-1.417 -0.541 -1.193 0 0 0 
-1.692 -0.541 -1.193 0 0 0 
-0.964 -0.553 -1.193 0 0 0 
-0.782 -0.553 -1.193 0 0 0 
-0.912 -0.553 -1.193 0 0 0 
-0.929 -0.553 -1.193 0 0 0 
-0.946 -0.553 -1.193 0 0 0 
-0.771 -0.556 -1.199 0 0 0 
0.71 -0.556 -1.199 0 0 0 
0.596 -0.556 -1.199 0 0 0 
-0.156 -0.556 -1.198 0 0 0 
-0.435 -0.555 -1.198 0 0 0 
-0.029 -0.555 -1.197 0 0 0 
-0.006 -0.555 -1.198 0 0 0 
0.754 -0.555 -1.197 0 0 0 
0.65 -0.555 -1.196 0 0 0 
0.526 -0.555 -1.197 0 0 0 
-0.063 -0.555 -1.196 0 0 0 
-0.227 -0.555 -1.198 0 0 0 
-0.383 -0.543 -1.198 0 0 0 
-0.346 -0.543 -1.198 0 0 0 
-0.098 -0.543 -1.199 0 0 0 
-0.121 -0.542 -1.197 0 0 0 
-0.075 -0.554 -1.196 0 0 0 
0.409 -0.554 -1.196 0 0 0 
0.58 -0.554 -1.196 0 0 0 
0.179 -0.554 -1.196 0 0 0 
0.075 -0.554 -1.196 0 0 0 
0.298 -0.543 -1.199 0 0 0 
0.261 -0.542 -1.197 0 0 0 
0.383 -0.543 -1.198 0 0 0 
0.485 -0.542 -1.196 0 0 0 
-0.179 -0.554 -1.196 0 0 0 
-0.694 -0.555 -1.196 0 0 0 
-0.678 -0.553 -1.194 0 0 0 
-0.634 -0.553 -1.193 0 0 0 
-0.447 -0.554 -1.194 0 0 0 
-0.098 -0.554 -1.194 0 0 0 
-0.298 -0.554 -1.195 0 0 0 
-0.358 -0.541 -1.195 0 0 0 
-0.144 -0.541 -1.195 0 0 0 
-0.121 -0.553 -1.193 0 0 0 
0.383 -0.553 -1.193 0 0 0 
0.121 -0.553 -1.193 0 0 0 
-0.109 -0.553 -1.193 0 0 0 
0.273 -0.541 -1.195 0 0 0 
0.358 -0.541 -1.195 0 0 0 
-0.029 -0.54 -1.193 0 0 0 
-0.017 -0.541 -1.193 0 0 0 
-0.346 -0.553 -1.193 0 0 0 
0.771 -0.566 -1.194 0 0 0 
0.918 -0.556 -1.2 0 0 0 
1.005 -0.556 -1.199 0 0 0 
1.222 -0.556 -1.199 0 0 0 
0.9 -0.556 -1.2 0 0 0 
0.849 -0.555 -1.198 0 0 0 
1.118 -0.555 -1.198 0 0 0 
1.934 -0.543 -1.2 0 0 0 
3.757 -0.531 -1.2 0 0 0 
1.451 -0.544 -1.2 0 0 0 
1.328 -0.543 -1.199 0 0 0 
0.912 -0.542 -1.197 0 0 0 
1.638 -0.542 -1.197 0 0 0 
0.895 -0.542 -1.197 0 0 0 
1.971 -0.543 -1.199 0 0 0 
2.255 -0.543 -1.198 0 0 0 
3.863 -0.531 -1.199 0 0 0 
3.97 -0.53 -1.197 0 0 0 
7.223 -0.518 -1.199 0 0 0 
7.985 -0.505 -1.198 0 0 0 
2.209 -0.542 -1.197 0 0 0 
0.832 -0.555 -1.197 0 0 0 
1.058 -0.554 -1.196 0 0 0 
1.136 -0.554 -1.196 0 0 0 
0.799 -0.554 -1.194 0 0 0 
0.816 -0.554 -1.196 0 0 0 
0.964 -0.553 -1.193 0 0 0 
0.946 -0.553 -1.193 0 0 0 
1.24 -0.555 -1.196 0 0 0 
1.477 -0.555 -1.196 0 0 0 
1.53 -0.555 -1.196 0 0 0 
1.398 -0.553 -1.194 0 0 0 
1.862 -0.554 -1.194 0 0 0 
4.338 -0.528 -1.194 0 0 0 
4.629 -0.528 -1.194 0 0 0 
1.328 -0.554 -1.194 0 0 0 
1.259 -0.553 -1.193 0 0 0 
1.826 -0.553 -1.193 0 0 0 
2.338 -0.54 -1.193 0 0 0 
4.076 -0.528 -1.193 0 0 0 
4.785 -0.528 -1.193 0 0 0 
4.202 -0.528 -1.193 0 0 0 
2.292 -0.541 -1.193 0 0 0 
-4.591 -0.503 -1.193 0 0 0 
-7.549 -0.493 -1.2 0 0 0 
8.927 -0.492 -1.197 0 0 0 
10.138 -0.48 -1.197 0 0 0 
-7.154 -0.492 -1.196 0 0 0 
-6.493 -0.491 -1.194 0 0 0 
-6.207 -0.491 -1.194 0 0 0 
-8.897 -0.491 -1.193 0 0 0 
-0.999 -0.552 -1.192 0 0 0 
-1.147 -0.54 -1.192 0 0 0 
-1.818 -0.54 -1.192 0 0 0 
-4.309 -0.514 -1.191 0 0 0 
-5.686 -0.489 -1.19 0 0 0 
-2.072 -0.539 -1.191 0 0 0 
-0.981 -0.553 -1.192 0 0 0 
0.511 -0.553 -1.192 0 0 0 
0.538 -0.553 -1.192 0 0 0 
1.302 -0.553 -1.192 0 0 0 
1.372 -0.553 -1.192 0 0 0 
0.564 -0.553 -1.192 0 0 0 
0.878 -0.553 -1.192 0 0 0 
-0.261 -0.553 -1.192 0 0 0 
-0.309 -0.553 -1.192 0 0 0 
-0.705 -0.552 -1.191 0 0 0 
-0.485 -0.552 -1.192 0 0 0 
0.485 -0.552 -1.192 0 0 0 
-0.132 -0.552 -1.192 0 0 0 
0.214 -0.552 -1.191 0 0 0 
0.861 -0.552 -1.191 0 0 0 
-0.458 -0.552 -1.191 0 0 0 
-0.591 -0.552 -1.191 0 0 0 
-0.662 -0.552 -1.191 0 0 0 
-0.369 -0.54 -1.192 0 0 0 
0.237 -0.54 -1.192 0 0 0 
0.47 -0.54 -1.192 0 0 0 
2.385 -0.54 -1.192 0 0 0 
7.559 -0.515 -1.192 0 0 0 
9.473 -0.49 -1.192 0 0 0 
4.474 -0.528 -1.192 0 0 0 
-0.051 -0.54 -1.192 0 0 0 
-0.086 -0.539 -1.191 0 0 0 
6.0 -0.527 -1.191 0 0 0 
-0.861 -0.552 -1.191 0 0 0 
-0.844 -0.552 -1.19 0 0 0 
0.395 -0.552 -1.19 0 0 0 
1.926 -0.552 -1.19 0 0 0 
1.496 -0.552 -1.19 0 0 0 
1.549 -0.552 -1.19 0 0 0 
-0.395 -0.552 -1.19 0 0 0 
-0.619 -0.552 -1.19 0 0 0 
0.248 -0.539 -1.19 0 0 0 
2.431 -0.539 -1.19 0 0 0 
4.942 -0.526 -1.19 0 0 0 
0.444 -0.539 -1.19 0 0 0 
-9.463 -0.479 -1.195 0 0 0 
10.844 -0.467 -1.195 0 0 0 
-4.708 -0.467 -1.195 0 0 0 
12.666 -0.454 -1.192 0 0 0 
-11.023 -0.454 -1.223 0 0 0 
-11.829 -0.429 -1.222 0 0 0 
12.845 -0.45 -1.213 0 0 0 
14.061 -0.439 -1.215 0 0 0 
-11.64 -0.433 -1.199 0 0 0 
-12.497 -0.406 -1.191 0 0 0 
13.822 -0.442 -1.191 0 0 0 
-13.603 -0.383 -1.19 0 0 0 
-13.413 -0.388 -1.17 0 0 0 
-11.491 -0.438 -1.18 0 0 0 
-4.572 -0.511 -1.184 0 0 0 
1.129 -0.562 -1.184 0 0 0 
0.619 -0.562 -1.185 0 0 0 
-1.087 -0.55 -1.186 0 0 0 
-1.954 -0.539 -1.189 0 0 0 
-1.918 -0.539 -1.189 0 0 0 
-1.105 -0.539 -1.189 0 0 0 
-2.109 -0.539 -1.189 0 0 0 
-1.339 -0.538 -1.189 0 0 0 
-1.01 -0.538 -1.188 0 0 0 
-2.146 -0.537 -1.186 0 0 0 
-1.711 -0.537 -1.185 0 0 0 
-2.018 -0.536 -1.183 0 0 0 
-2.947 -0.525 -1.186 0 0 0 
-3.014 -0.524 -1.184 0 0 0 
-2.684 -0.524 -1.184 0 0 0 
-2.628 -0.524 -1.185 0 0 0 
-2.806 -0.523 -1.183 0 0 0 
-1.982 -0.536 -1.184 0 0 0 
-2.183 -0.536 -1.183 0 0 0 
-1.028 -0.538 -1.187 0 0 0 
-1.01 -0.549 -1.184 0 0 0 
-0.872 -0.549 -1.184 0 0 0 
-1.436 -0.549 -1.183 0 0 0 
-0.827 -0.551 -1.189 0 0 0 
-0.549 -0.551 -1.188 0 0 0 
-0.04 -0.551 -1.188 0 0 0 
0.017 -0.551 -1.188 0 0 0 
0.029 -0.551 -1.188 0 0 0 
1.277 -0.551 -1.189 0 0 0 
1.443 -0.551 -1.189 0 0 0 
1.89 -0.551 -1.189 0 0 0 
1.755 -0.551 -1.189 0 0 0 
1.576 -0.551 -1.189 0 0 0 
0.432 -0.551 -1.189 0 0 0 
0.369 -0.551 -1.188 0 0 0 
0.496 -0.551 -1.188 0 0 0 
0.549 -0.551 -1.188 0 0 0 
0.167 -0.551 -1.188 0 0 0 
0.051 -0.551 -1.188 0 0 0 
0.04 -0.551 -1.188 0 0 0 
-0.167 -0.551 -1.188 0 0 0 
-0.369 -0.551 -1.188 0 0 0 
-0.646 -0.551 -1.188 0 0 0 
-0.576 -0.551 -1.187 0 0 0 
0.237 -0.551 -1.187 0 0 0 
-0.237 -0.551 -1.187 0 0 0 
-0.749 -0.551 -1.189 0 0 0 
-0.47 -0.55 -1.187 0 0 0 
0.063 -0.55 -1.187 0 0 0 
1.147 -0.55 -1.187 0 0 0 
0.47 -0.55 -1.187 0 0 0 
0.332 -0.55 -1.187 0 0 0 
-0.332 -0.55 -1.187 0 0 0 
-0.406 -0.55 -1.187 0 0 0 
5.118 -0.526 -1.189 0 0 0 
0.418 -0.538 -1.189 0 0 0 
6.246 -0.526 -1.188 0 0 0 
5.304 -0.525 -1.187 0 0 0 
5.735 -0.525 -1.187 0 0 0 
6.532 -0.526 -1.188 0 0 0 
-0.794 -0.55 -1.187 0 0 0 
-0.603 -0.55 -1.186 0 0 0 
0.086 -0.55 -1.186 0 0 0 
0.444 -0.55 -1.186 0 0 0 
1.782 -0.55 -1.186 0 0 0 
1.087 -0.55 -1.186 0 0 0 
0.296 -0.55 -1.186 0 0 0 
-0.086 -0.55 -1.186 0 0 0 
-0.248 -0.55 -1.185 0 0 0 
-0.534 -0.549 -1.184 0 0 0 
0.344 -0.549 -1.184 0 0 0 
2.237 -0.549 -1.184 0 0 0 
0.418 -0.549 -1.184 0 0 0 
1.339 -0.549 -1.184 0 0 0 
0.108 -0.549 -1.184 0 0 0 
-0.381 -0.549 -1.185 0 0 0 
5.5 -0.524 -1.184 0 0 0 
3.099 -0.536 -1.184 0 0 0 
-0.507 -0.549 -1.184 0 0 0 
0.259 -0.549 -1.183 0 0 0 
1.684 -0.549 -1.183 0 0 0 
2.027 -0.548 -1.183 0 0 0 
2.693 -0.536 -1.183 0 0 0 
3.175 -0.536 -1.183 0 0 0 
3.023 -0.536 -1.183 0 0 0 
2.469 -0.536 -1.183 0 0 0 
8.342 -0.499 -1.183 0 0 0 
1.028 -0.548 -1.183 0 0 0 
-0.017 -0.561 -1.183 0 0 0 
0.097 -0.56 -1.18 0 0 0 
0.673 -0.56 -1.181 0 0 0 
0.717 -0.56 -1.18 0 0 0 
0.777 -0.56 -1.18 0 0 0 
0.63 -0.56 -1.18 0 0 0 
-0.108 -0.56 -1.18 0 0 0 
-0.248 -0.56 -1.181 0 0 0 
-0.355 -0.548 -1.182 0 0 0 
-0.492 -0.547 -1.179 0 0 0 
-0.519 -0.547 -1.18 0 0 0 
-3.913 -0.522 -1.18 0 0 0 
-3.595 -0.522 -1.18 0 0 0 
-2.266 -0.534 -1.18 0 0 0 
-0.318 -0.547 -1.181 0 0 0 
-1.288 -0.547 -1.179 0 0 0 
-1.561 -0.546 -1.178 0 0 0 
-0.259 -0.559 -1.179 0 0 0 
0.481 -0.559 -1.178 0 0 0 
0.201 -0.559 -1.179 0 0 0 
0.131 -0.548 -1.182 0 0 0 
0.143 -0.548 -1.181 0 0 0 
0.271 -0.548 -1.181 0 0 0 
0.355 -0.548 -1.182 0 0 0 
0.455 -0.548 -1.182 0 0 0 
-0.143 -0.548 -1.181 0 0 0 
0.006 -0.547 -1.179 0 0 0 
0.154 -0.547 -1.18 0 0 0 
-0.051 -0.546 -1.178 0 0 0 
0.224 -0.547 -1.18 0 0 0 
0.282 -0.547 -1.179 0 0 0 
-0.307 -0.559 -1.178 0 0 0 
0.794 -0.561 -1.182 0 0 0 
0.923 -0.56 -1.181 0 0 0 
0.993 -0.56 -1.179 0 0 0 
0.906 -0.56 -1.18 0 0 0 
1.01 -0.559 -1.179 0 0 0 
2.146 -0.548 -1.181 0 0 0 
2.064 -0.548 -1.181 0 0 0 
1.595 -0.548 -1.182 0 0 0 
2.572 -0.535 -1.181 0 0 0 
2.75 -0.535 -1.181 0 0 0 
2.881 -0.536 -1.182 0 0 0 
2.947 -0.535 -1.181 0 0 0 
3.251 -0.535 -1.181 0 0 0 
6.808 -0.523 -1.182 0 0 0 
7.896 -0.51 -1.181 0 0 0 
1.711 -0.547 -1.181 0 0 0 
1.649 -0.547 -1.179 0 0 0 
1.946 -0.547 -1.179 0 0 0 
1.982 -0.547 -1.179 0 0 0 
2.1 -0.547 -1.179 0 0 0 
2.516 -0.535 -1.18 0 0 0 
2.628 -0.535 -1.18 0 0 0 
3.327 -0.534 -1.179 0 0 0 
3.605 -0.534 -1.179 0 0 0 
3.413 -0.534 -1.178 0 0 0 
2.806 -0.534 -1.178 0 0 0 
2.183 -0.546 -1.178 0 0 0 
1.028 -0.559 -1.178 0 0 0 
-6.148 -0.497 -1.178 0 0 0 
-3.49 -0.521 -1.177 0 0 0 
-3.309 -0.521 -1.177 0 0 0 
-0.143 -0.558 -1.177 0 0 0 
0.744 -0.558 -1.177 0 0 0 
3.701 -0.533 -1.177 0 0 0 
7.115 -0.521 -1.177 0 0 0 
0.246 -0.545 -1.177 0 0 0 
-7.827 -0.485 -1.179 0 0 0 
11.621 -0.463 -1.185 0 0 0 
-4.679 -0.475 -1.184 0 0 0 
-4.992 -0.462 -1.181 0 0 0 
10.715 -0.472 -1.177 0 0 0 
-10.675 -0.46 -1.177 0 0 0 
-11.332 -0.442 -1.16 0 0 0 
-12.328 -0.411 -1.171 0 0 0 
-12.139 -0.415 -1.15 0 0 0 
-10.497 -0.462 -1.153 0 0 0 
-9.304 -0.482 -1.171 0 0 0 
-6.365 -0.492 -1.167 0 0 0 
-0.466 -0.557 -1.173 0 0 0 
-1.307 -0.545 -1.175 0 0 0 
-1.116 -0.545 -1.175 0 0 0 
-1.039 -0.545 -1.175 0 0 0 
-1.022 -0.545 -1.176 0 0 0 
-1.377 -0.545 -1.175 0 0 0 
-1.403 -0.545 -1.176 0 0 0 
-3.395 -0.52 -1.176 0 0 0 
-2.854 -0.52 -1.176 0 0 0 
-2.451 -0.532 -1.175 0 0 0 
-3.062 -0.52 -1.174 0 0 0 
-4.01 -0.519 -1.174 0 0 0 
-3.778 -0.519 -1.173 0 0 0 
-3.138 -0.519 -1.174 0 0 0 
-3.673 -0.519 -1.173 0 0 0 
-2.554 -0.531 -1.173 0 0 0 
-4.261 -0.519 -1.173 0 0 0 
-1.5 -0.544 -1.173 0 0 0 
-1.195 -0.544 -1.173 0 0 0 
-1.134 -0.544 -1.173 0 0 0 
-1.057 -0.544 -1.173 0 0 0 
-1.238 -0.544 -1.173 0 0 0 
-1.351 -0.544 -1.173 0 0 0 
-1.829 -0.544 -1.173 0 0 0 
-3.214 -0.519 -1.172 0 0 0 
-2.498 -0.531 -1.172 0 0 0 
-4.397 -0.519 -1.172 0 0 0 
-1.526 -0.544 -1.172 0 0 0 
-1.474 -0.544 -1.172 0 0 0 
-1.004 -0.556 -1.172 0 0 0 
-0.867 -0.556 -1.172 0 0 0 
-1.098 -0.556 -1.172 0 0 0 
-0.756 -0.555 -1.171 0 0 0 
-0.478 -0.555 -1.17 0 0 0 
-0.557 -0.555 -1.17 0 0 0 
-0.653 -0.555 -1.17 0 0 0 
-0.816 -0.555 -1.169 0 0 0 
-0.833 -0.555 -1.17 0 0 0 
-1.325 -0.543 -1.171 0 0 0 
-1.152 -0.543 -1.171 0 0 0 
-1.092 -0.543 -1.17 0 0 0 
-1.794 -0.543 -1.171 0 0 0 
-2.295 -0.53 -1.171 0 0 0 
-2.203 -0.53 -1.17 0 0 0 
-2.341 -0.53 -1.17 0 0 0 
-4.126 -0.518 -1.171 0 0 0 
-1.857 -0.542 -1.169 0 0 0 
-1.256 -0.542 -1.17 0 0 0 
-1.213 -0.542 -1.17 0 0 0 
-1.929 -0.542 -1.169 0 0 0 
-0.61 -0.554 -1.169 0 0 0 
-0.739 -0.554 -1.169 0 0 0 
-0.723 -0.553 -1.167 0 0 0 
-1.17 -0.542 -1.168 0 0 0 
-1.723 -0.541 -1.167 0 0 0 
-0.68 -0.554 -1.167 0 0 0 
-0.389 -0.554 -1.168 0 0 0 
-0.637 -0.554 -1.167 0 0 0 
-0.378 -0.556 -1.171 0 0 0 
-0.318 -0.558 -1.176 0 0 0 
1.063 -0.558 -1.175 0 0 0 
0.684 -0.558 -1.175 0 0 0 
-0.154 -0.558 -1.175 0 0 0 
-0.235 -0.557 -1.174 0 0 0 
0.492 -0.557 -1.174 0 0 0 
0.728 -0.557 -1.175 0 0 0 
0.641 -0.557 -1.175 0 0 0 
1.081 -0.557 -1.174 0 0 0 
1.481 -0.557 -1.174 0 0 0 
0.572 -0.557 -1.174 0 0 0 
-0.028 -0.557 -1.174 0 0 0 
-0.04 -0.557 -1.174 0 0 0 
0.188 -0.545 -1.176 0 0 0 
0.305 -0.545 -1.174 0 0 0 
1.614 -0.545 -1.175 0 0 0 
2.266 -0.545 -1.175 0 0 0 
2.312 -0.545 -1.175 0 0 0 
3.797 -0.532 -1.174 0 0 0 
3.913 -0.532 -1.175 0 0 0 
2.358 -0.544 -1.174 0 0 0 
-0.282 -0.557 -1.174 0 0 0 
-0.188 -0.556 -1.171 0 0 0 
-0.177 -0.556 -1.173 0 0 0 
-0.119 -0.555 -1.17 0 0 0 
-0.199 -0.555 -1.17 0 0 0 
-0.269 -0.554 -1.168 0 0 0 
-0.062 -0.557 -1.173 0 0 0 
1.534 -0.557 -1.173 0 0 0 
0.935 -0.557 -1.173 0 0 0 
0.466 -0.557 -1.173 0 0 0 
0.969 -0.556 -1.173 0 0 0 
3.49 -0.531 -1.173 0 0 0 
0.074 -0.556 -1.173 0 0 0 
0.316 -0.543 -1.172 0 0 0 
0.44 -0.556 -1.172 0 0 0 
1.098 -0.556 -1.172 0 0 0 
0.867 -0.556 -1.172 0 0 0 
0.85 -0.556 -1.171 0 0 0 
1.22 -0.556 -1.171 0 0 0 
0.884 -0.556 -1.172 0 0 0 
0.653 -0.555 -1.17 0 0 0 
1.177 -0.555 -1.17 0 0 0 
0.696 -0.555 -1.17 0 0 0 
0.833 -0.555 -1.17 0 0 0 
4.145 -0.531 -1.172 0 0 0 
2.405 -0.544 -1.172 0 0 0 
2.451 -0.543 -1.17 0 0 0 
3.004 -0.543 -1.171 0 0 0 
4.552 -0.53 -1.17 0 0 0 
2.797 -0.542 -1.17 0 0 0 
0.557 -0.555 -1.17 0 0 0 
0.8 -0.554 -1.168 0 0 0 
0.452 -0.554 -1.169 0 0 0 
0.816 -0.555 -1.169 0 0 0 
1.238 -0.554 -1.168 0 0 0 
1.281 -0.554 -1.168 0 0 0 
1.829 -0.554 -1.168 0 0 0 
1.134 -0.554 -1.168 0 0 0 
1.195 -0.554 -1.168 0 0 0 
4.01 -0.53 -1.169 0 0 0 
7.441 -0.517 -1.169 0 0 0 
2.929 -0.542 -1.169 0 0 0 
2.498 -0.541 -1.167 0 0 0 
2.554 -0.541 -1.168 0 0 0 
2.666 -0.541 -1.167 0 0 0 
4.699 -0.529 -1.167 0 0 0 
4.864 -0.528 -1.167 0 0 0 
4.397 -0.529 -1.167 0 0 0 
-0.246 -0.566 -1.167 0 0 0 
-0.963 -0.553 -1.166 0 0 0 
-0.929 -0.553 -1.166 0 0 0 
-0.541 -0.553 -1.166 0 0 0 
-0.222 -0.553 -1.166 0 0 0 
-0.568 -0.553 -1.166 0 0 0 
-0.783 -0.553 -1.166 0 0 0 
-0.912 -0.553 -1.166 0 0 0 
-0.981 -0.553 -1.165 0 0 0 
-0.895 -0.553 -1.165 0 0 0 
-0.664 -0.553 -1.165 0 0 0 
-0.594 -0.553 -1.165 0 0 0 
-0.327 -0.553 -1.165 0 0 0 
-0.006 -0.553 -1.165 0 0 0 
0.028 -0.553 -1.165 0 0 0 
0.039 -0.553 -1.165 0 0 0 
0.006 -0.553 -1.165 0 0 0 
-0.164 -0.553 -1.165 0 0 0 
-0.4 -0.553 -1.165 0 0 0 
-0.364 -0.553 -1.165 0 0 0 
-0.767 -0.553 -1.165 0 0 0 
-0.878 -0.553 -1.165 0 0 0 
-0.946 -0.553 -1.166 0 0 0 
-1.66 -0.541 -1.166 0 0 0 
-1.44 -0.541 -1.166 0 0 0 
-1.885 -0.54 -1.164 0 0 0 
-1.75 -0.54 -1.164 0 0 0 
-1.599 -0.54 -1.164 0 0 0 
-2.378 -0.527 -1.164 0 0 0 
-2.592 -0.527 -1.164 0 0 0 
-1.572 -0.54 -1.165 0 0 0 
-1.688 -0.54 -1.164 0 0 0 
-0.707 -0.552 -1.164 0 0 0 
-0.073 -0.552 -1.164 0 0 0 
0.062 -0.552 -1.164 0 0 0 
0.051 -0.552 -1.165 0 0 0 
-0.437 -0.552 -1.164 0 0 0 
-0.621 -0.552 -1.164 0 0 0 
-0.844 -0.552 -1.164 0 0 0 
0.096 -0.566 -1.166 0 0 0 
0.756 -0.566 -1.166 0 0 0 
0.164 -0.553 -1.165 0 0 0 
0.515 -0.553 -1.166 0 0 0 
0.541 -0.553 -1.166 0 0 0 
0.946 -0.553 -1.166 0 0 0 
1.152 -0.553 -1.166 0 0 0 
0.222 -0.553 -1.166 0 0 0 
0.364 -0.553 -1.165 0 0 0 
1.395 -0.553 -1.165 0 0 0 
1.256 -0.553 -1.165 0 0 0 
0.594 -0.553 -1.165 0 0 0 
0.233 -0.553 -1.165 0 0 0 
1.369 -0.552 -1.164 0 0 0 
1.857 -0.552 -1.164 0 0 0 
1.893 -0.552 -1.164 0 0 0 
4.252 -0.528 -1.166 0 0 0 
2.854 -0.541 -1.166 0 0 0 
2.601 -0.54 -1.164 0 0 0 
2.722 -0.54 -1.165 0 0 0 
3.138 -0.54 -1.165 0 0 0 
3.299 -0.54 -1.164 0 0 0 
3.062 -0.54 -1.165 0 0 0 
5.03 -0.527 -1.164 0 0 0 
6.424 -0.527 -1.164 0 0 0 
3.778 -0.539 -1.164 0 0 0 
0.175 -0.552 -1.164 0 0 0 
0.739 -0.565 -1.164 0 0 0 
-4.524 -0.516 -1.167 0 0 0 
8.788 -0.495 -1.174 0 0 0 
9.324 -0.493 -1.169 0 0 0 
-5.834 -0.492 -1.167 0 0 0 
-6.651 -0.491 -1.164 0 0 0 
0.664 -0.563 -1.16 0 0 0 
-0.017 -0.563 -1.16 0 0 0 
-0.364 -0.563 -1.16 0 0 0 
-0.339 -0.551 -1.162 0 0 0 
-0.412 -0.551 -1.162 0 0 0 
-1.993 -0.539 -1.163 0 0 0 
-1.626 -0.539 -1.163 0 0 0 
-2.902 -0.527 -1.163 0 0 0 
-4.631 -0.491 -1.163 0 0 0 
-2.704 -0.526 -1.162 0 0 0 
-6.08 -0.501 -1.161 0 0 0 
-2.149 -0.538 -1.16 0 0 0 
-2.066 -0.538 -1.16 0 0 0 
-0.448 -0.55 -1.16 0 0 0 
-0.795 -0.55 -1.16 0 0 0 
-1.949 -0.537 -1.159 0 0 0 
-0.35 -0.55 -1.159 0 0 0 
-0.291 -0.552 -1.163 0 0 0 
0.084 -0.552 -1.163 0 0 0 
0.375 -0.551 -1.162 0 0 0 
0.5 -0.551 -1.162 0 0 0 
0.526 -0.551 -1.162 0 0 0 
0.579 -0.551 -1.162 0 0 0 
-0.096 -0.551 -1.162 0 0 0 
-0.129 -0.55 -1.16 0 0 0 
-0.209 -0.55 -1.159 0 0 0 
0.107 -0.551 -1.161 0 0 0 
0.303 -0.551 -1.161 0 0 0 
0.118 -0.551 -1.161 0 0 0 
0.129 -0.55 -1.16 0 0 0 
0.209 -0.55 -1.159 0 0 0 
0.35 -0.55 -1.159 0 0 0 
0.386 -0.55 -1.159 0 0 0 
0.621 -0.562 -1.159 0 0 0 
-0.209 -0.56 -1.154 0 0 0 
-0.35 -0.56 -1.154 0 0 0 
-0.94 -0.56 -1.154 0 0 0 
-0.231 -0.558 -1.151 0 0 0 
-2.103 -0.537 -1.158 0 0 0 
-2.021 -0.536 -1.157 0 0 0 
-0.511 -0.549 -1.158 0 0 0 
-0.485 -0.549 -1.157 0 0 0 
-1.009 -0.549 -1.157 0 0 0 
-2.223 -0.534 -1.152 0 0 0 
-2.361 -0.534 -1.151 0 0 0 
-2.63 -0.523 -1.156 0 0 0 
-2.817 -0.524 -1.156 0 0 0 
-3.952 -0.522 -1.152 0 0 0 
-4.612 -0.499 -1.154 0 0 0 
-3.731 -0.523 -1.154 0 0 0 
-3.529 -0.523 -1.154 0 0 0 
-2.949 -0.523 -1.154 0 0 0 
-2.752 -0.523 -1.155 0 0 0 
-3.625 -0.522 -1.153 0 0 0 
-3.253 -0.522 -1.152 0 0 0 
-1.538 -0.548 -1.155 0 0 0 
-1.027 -0.548 -1.156 0 0 0 
-1.121 -0.548 -1.155 0 0 0 
-1.044 -0.548 -1.154 0 0 0 
-1.406 -0.548 -1.154 0 0 0 
-0.686 -0.547 -1.154 0 0 0 
-0.497 -0.547 -1.154 0 0 0 
-0.523 -0.547 -1.154 0 0 0 
-1.061 -0.547 -1.153 0 0 0 
-1.199 -0.546 -1.152 0 0 0 
-1.285 -0.546 -1.151 0 0 0 
-0.575 -0.547 -1.153 0 0 0 
-0.22 -0.559 -1.153 0 0 0 
-0.006 -0.559 -1.152 0 0 0 
-0.05 -0.548 -1.156 0 0 0 
0.017 -0.549 -1.156 0 0 0 
-0.084 -0.547 -1.154 0 0 0 
-0.839 -0.559 -1.151 0 0 0 
0.107 -0.561 -1.157 0 0 0 
0.718 -0.56 -1.154 0 0 0 
0.778 -0.56 -1.154 0 0 0 
0.538 -0.56 -1.153 0 0 0 
0.632 -0.56 -1.154 0 0 0 
0.152 -0.549 -1.157 0 0 0 
0.397 -0.549 -1.156 0 0 0 
0.278 -0.549 -1.157 0 0 0 
0.325 -0.548 -1.156 0 0 0 
0.185 -0.547 -1.153 0 0 0 
0.242 -0.547 -1.154 0 0 0 
0.336 -0.547 -1.153 0 0 0 
0.409 -0.547 -1.153 0 0 0 
0.423 -0.55 -1.158 0 0 0 
0.485 -0.559 -1.153 0 0 0 
0.254 -0.546 -1.152 0 0 0 
0.762 -0.559 -1.152 0 0 0 
0.8 -0.564 -1.163 0 0 0 
1.015 -0.562 -1.159 0 0 0 
1.033 -0.562 -1.158 0 0 0 
0.828 -0.562 -1.158 0 0 0 
1.033 -0.552 -1.163 0 0 0 
1.05 -0.561 -1.157 0 0 0 
1.344 -0.551 -1.162 0 0 0 
1.785 -0.551 -1.161 0 0 0 
1.723 -0.551 -1.162 0 0 0 
1.44 -0.551 -1.161 0 0 0 
1.572 -0.551 -1.16 0 0 0 
1.492 -0.551 -1.162 0 0 0 
1.414 -0.55 -1.16 0 0 0 
1.921 -0.55 -1.16 0 0 0 
5.216 -0.527 -1.163 0 0 0 
6.139 -0.527 -1.163 0 0 0 
3.214 -0.539 -1.163 0 0 0 
3.663 -0.538 -1.161 0 0 0 
5.412 -0.526 -1.161 0 0 0 
6.71 -0.526 -1.16 0 0 0 
5.873 -0.526 -1.162 0 0 0 
8.223 -0.502 -1.162 0 0 0 
5.628 -0.525 -1.16 0 0 0 
1.318 -0.55 -1.16 0 0 0 
1.293 -0.549 -1.158 0 0 0 
1.599 -0.55 -1.159 0 0 0 
2.157 -0.55 -1.159 0 0 0 
1.688 -0.55 -1.159 0 0 0 
1.993 -0.55 -1.158 0 0 0 
1.626 -0.549 -1.158 0 0 0 
3.558 -0.537 -1.159 0 0 0 
3.462 -0.537 -1.159 0 0 0 
7.778 -0.513 -1.158 0 0 0 
2.112 -0.549 -1.158 0 0 0 
2.03 -0.549 -1.157 0 0 0 
3.366 -0.536 -1.157 0 0 0 
0.811 -0.561 -1.157 0 0 0 
0.94 -0.56 -1.154 0 0 0 
1.068 -0.56 -1.155 0 0 0 
2.066 -0.548 -1.155 0 0 0 
1.949 -0.548 -1.154 0 0 0 
1.538 -0.548 -1.155 0 0 0 
1.742 -0.547 -1.154 0 0 0 
2.194 -0.548 -1.156 0 0 0 
2.231 -0.547 -1.152 0 0 0 
3.865 -0.536 -1.156 0 0 0 
3.981 -0.536 -1.156 0 0 0 
4.097 -0.535 -1.154 0 0 0 
4.223 -0.535 -1.153 0 0 0 
8.659 -0.498 -1.153 0 0 0 
2.323 -0.546 -1.152 0 0 0 
1.103 -0.559 -1.152 0 0 0 
1.645 -0.546 -1.151 0 0 0 
6.987 -0.521 -1.151 0 0 0 
-8.709 -0.491 -1.164 0 0 0 
-7.699 -0.487 -1.155 0 0 0 
-7.342 -0.49 -1.163 0 0 0 
-5.354 -0.48 -1.166 0 0 0 
9.999 -0.484 -1.176 0 0 0 
-4.65 -0.482 -1.172 0 0 0 
-6.957 -0.489 -1.159 0 0 0 
-5.54 -0.487 -1.155 0 0 0 
9.87 -0.488 -1.157 0 0 0 
-8.144 -0.487 -1.155 0 0 0 
-9.175 -0.485 -1.151 0 0 0 
-6.287 -0.496 -1.148 0 0 0 
-1.477 -0.546 -1.15 0 0 0 
-3.827 -0.521 -1.15 0 0 0 
-0.42 -0.545 -1.15 0 0 0 
-1.451 -0.545 -1.15 0 0 0 
0.073 -0.558 -1.15 0 0 0 
2.37 -0.546 -1.15 0 0 0 
0.265 -0.546 -1.15 0 0 0 
0.311 -0.545 -1.15 0 0 0 
4.349 -0.533 -1.15 0 0 0 
0.139 -0.545 -1.15 0 0 0 
-0.289 -0.558 -1.15 0 0 0 
-0.196 -0.557 -1.147 0 0 0 
-0.106 -0.557 -1.148 0 0 0 
-0.254 -0.557 -1.147 0 0 0 
-0.729 -0.557 -1.148 0 0 0 
-1.003 -0.555 -1.145 0 0 0 
-2.407 -0.533 -1.149 0 0 0 
-3.329 -0.52 -1.149 0 0 0 
-1.425 -0.545 -1.149 0 0 0 
-1.26 -0.545 -1.149 0 0 0 
-1.217 -0.545 -1.149 0 0 0 
-1.734 -0.545 -1.149 0 0 0 
-1.61 -0.544 -1.147 0 0 0 
-1.699 -0.544 -1.146 0 0 0 
-1.347 -0.543 -1.145 0 0 0 
-4.32 -0.52 -1.147 0 0 0 
-2.26 -0.532 -1.148 0 0 0 
-2.168 -0.532 -1.147 0 0 0 
-2.306 -0.532 -1.148 0 0 0 
-3.415 -0.52 -1.148 0 0 0 
-3.006 -0.52 -1.148 0 0 0 
-3.158 -0.52 -1.148 0 0 0 
-4.466 -0.52 -1.147 0 0 0 
-4.175 -0.519 -1.145 0 0 0 
-2.454 -0.532 -1.146 0 0 0 
-3.073 -0.519 -1.145 0 0 0 
-1.235 -0.543 -1.145 0 0 0 
-1.637 -0.543 -1.145 0 0 0 
-1.174 -0.545 -1.148 0 0 0 
-1.132 -0.544 -1.146 0 0 0 
-0.986 -0.556 -1.145 0 0 0 
-0.917 -0.556 -1.146 0 0 0 
-0.9 -0.556 -1.146 0 0 0 
-0.883 -0.556 -1.146 0 0 0 
-0.128 -0.556 -1.146 0 0 0 
-0.628 -0.556 -1.146 0 0 0 
-0.67 -0.556 -1.147 0 0 0 
-0.968 -0.556 -1.146 0 0 0 
-0.867 -0.556 -1.145 0 0 0 
-0.534 -0.556 -1.145 0 0 0 
-0.951 -0.556 -1.146 0 0 0 
-0.311 -0.555 -1.145 0 0 0 
-1.097 -0.556 -1.145 0 0 0 
-1.496 -0.543 -1.144 0 0 0 
-1.15 -0.543 -1.144 0 0 0 
-1.86 -0.543 -1.144 0 0 0 
-1.896 -0.543 -1.144 0 0 0 
-2.612 -0.53 -1.143 0 0 0 
-2.5 -0.53 -1.143 0 0 0 
-2.556 -0.53 -1.144 0 0 0 
-4.04 -0.518 -1.143 0 0 0 
-1.824 -0.542 -1.143 0 0 0 
-1.664 -0.542 -1.143 0 0 0 
-1.322 -0.542 -1.143 0 0 0 
-1.09 -0.542 -1.143 0 0 0 
-1.549 -0.542 -1.143 0 0 0 
-2.004 -0.542 -1.143 0 0 0 
-2.041 -0.541 -1.141 0 0 0 
-2.668 -0.529 -1.142 0 0 0 
-1.788 -0.542 -1.142 0 0 0 
-1.575 -0.542 -1.142 0 0 0 
-1.366 -0.541 -1.141 0 0 0 
-1.297 -0.541 -1.141 0 0 0 
-1.02 -0.555 -1.144 0 0 0 
-0.15 -0.555 -1.144 0 0 0 
-0.276 -0.555 -1.143 0 0 0 
-0.697 -0.555 -1.144 0 0 0 
0.017 -0.554 -1.143 0 0 0 
-0.817 -0.554 -1.143 0 0 0 
-0.8 -0.554 -1.141 0 0 0 
-0.322 -0.554 -1.142 0 0 0 
-0.039 -0.554 -1.142 0 0 0 
0.028 -0.554 -1.142 0 0 0 
0.05 -0.554 -1.142 0 0 0 
0.039 -0.554 -1.142 0 0 0 
-0.028 -0.554 -1.142 0 0 0 
-0.741 -0.554 -1.142 0 0 0 
-0.519 -0.554 -1.141 0 0 0 
-0.061 -0.554 -1.141 0 0 0 
-0.072 -0.554 -1.141 0 0 0 
-0.682 -0.554 -1.141 0 0 0 
-0.545 -0.553 -1.141 0 0 0 
0.084 -0.558 -1.149 0 0 0 
0.686 -0.558 -1.149 0 0 0 
0.549 -0.558 -1.149 0 0 0 
0.445 -0.556 -1.147 0 0 0 
0.575 -0.557 -1.148 0 0 0 
1.079 -0.556 -1.147 0 0 0 
0.67 -0.556 -1.147 0 0 0 
4.485 -0.532 -1.148 0 0 0 
4.641 -0.532 -1.148 0 0 0 
4.806 -0.532 -1.148 0 0 0 
2.268 -0.545 -1.148 0 0 0 
0.196 -0.557 -1.147 0 0 0 
0.128 -0.556 -1.146 0 0 0 
0.883 -0.556 -1.146 0 0 0 
1.285 -0.556 -1.146 0 0 0 
0.951 -0.556 -1.146 0 0 0 
0.867 -0.556 -1.145 0 0 0 
0.986 -0.556 -1.145 0 0 0 
1.477 -0.556 -1.145 0 0 0 
1.504 -0.556 -1.145 0 0 0 
1.156 -0.556 -1.145 0 0 0 
0.917 -0.556 -1.146 0 0 0 
0.56 -0.555 -1.145 0 0 0 
0.287 -0.543 -1.146 0 0 0 
0.586 -0.555 -1.144 0 0 0 
0.697 -0.555 -1.144 0 0 0 
1.53 -0.555 -1.145 0 0 0 
1.832 -0.555 -1.144 0 0 0 
1.425 -0.555 -1.144 0 0 0 
0.833 -0.555 -1.144 0 0 0 
0.85 -0.555 -1.145 0 0 0 
2.752 -0.544 -1.146 0 0 0 
7.323 -0.519 -1.146 0 0 0 
2.463 -0.544 -1.146 0 0 0 
2.407 -0.543 -1.144 0 0 0 
0.15 -0.555 -1.144 0 0 0 
0.431 -0.554 -1.142 0 0 0 
0.173 -0.554 -1.141 0 0 0 
0.456 -0.555 -1.143 0 0 0 
1.174 -0.555 -1.143 0 0 0 
0.639 -0.554 -1.141 0 0 0 
2.808 -0.542 -1.143 0 0 0 
2.874 -0.542 -1.143 0 0 0 
2.565 -0.542 -1.143 0 0 0 
2.621 -0.542 -1.142 0 0 0 
3.016 -0.542 -1.142 0 0 0 
3.167 -0.542 -1.142 0 0 0 
2.509 -0.542 -1.143 0 0 0 
2.94 -0.541 -1.141 0 0 0 
4.962 -0.53 -1.143 0 0 0 
5.344 -0.529 -1.142 0 0 0 
5.138 -0.529 -1.141 0 0 0 
2.677 -0.541 -1.141 0 0 0 
0.519 -0.554 -1.141 0 0 0 
-4.592 -0.507 -1.145 0 0 0 
9.175 -0.495 -1.146 0 0 0 
8.114 -0.505 -1.142 0 0 0 
-9.831 -0.476 -1.157 0 0 0 
-4.758 -0.456 -1.167 0 0 0 
11.432 -0.466 -1.162 0 0 0 
12.447 -0.456 -1.167 0 0 0 
13.633 -0.446 -1.171 0 0 0 
-5.109 -0.465 -1.16 0 0 0 
-4.729 -0.463 -1.156 0 0 0 
-4.875 -0.461 -1.149 0 0 0 
-4.7 -0.471 -1.144 0 0 0 
10.536 -0.474 -1.153 0 0 0 
13.413 -0.449 -1.148 0 0 0 
12.248 -0.459 -1.145 0 0 0 
-13.204 -0.392 -1.148 0 0 0 
-13.872 -0.38 -1.217 0 0 0 
-14.42 -0.367 -1.141 0 0 0 
-14.321 -0.361 -1.001 0 0 0 
-14.839 -0.347 -1.047 0 0 0 
-15.527 -0.334 -1.104 0 0 0 
-17.642 -0.276 -1.123 0 0 0 
-15.926 -0.323 -1.139 0 0 0 
-15.687 -0.328 -1.119 0 0 0 
-17.133 -0.287 -1.086 0 0 0 
-17.373 -0.281 -1.103 0 0 0 
-16.974 -0.294 -1.073 0 0 0 
-15.308 -0.339 -1.086 0 0 0 
-15.108 -0.344 -1.069 0 0 0 
-16.375 -0.311 -1.027 0 0 0 
-16.754 -0.299 -1.057 0 0 0 
-16.545 -0.305 -1.041 0 0 0 
-18.61 -0.252 -1.026 0 0 0 
-16.225 -0.317 -1.015 0 0 0 
-14.61 -0.351 -1.028 0 0 0 
-14.46 -0.356 -1.014 0 0 0 
-14.948 -0.349 -0.916 0 0 0 
-15.317 -0.341 -0.944 0 0 0 
-15.756 -0.325 -0.98 0 0 0 
-18.261 -0.256 -1.005 0 0 0 
-15.996 -0.321 -0.998 0 0 0 
-17.871 -0.259 -0.981 0 0 0 
-17.592 -0.264 -0.963 0 0 0 
-15.537 -0.329 -0.964 0 0 0 
-15.417 -0.335 -0.953 0 0 0 
-16.673 -0.29 -0.901 0 0 0 
-17.222 -0.275 -0.939 0 0 0 
-17.422 -0.27 -0.952 0 0 0 
-16.963 -0.279 -0.922 0 0 0 
-16.793 -0.284 -0.91 0 0 0 
-16.553 -0.296 -0.892 0 0 0 
-15.108 -0.344 -0.928 0 0 0 
-14.599 -0.348 -0.891 0 0 0 
-14.766 -0.339 -0.767 0 0 0 
-15.136 -0.327 -0.795 0 0 0 
-15.575 -0.315 -0.826 0 0 0 
-15.755 -0.311 -0.839 0 0 0 
-16.404 -0.301 -0.882 0 0 0 
-16.134 -0.303 -0.864 0 0 0 
-15.964 -0.308 -0.853 0 0 0 
-18.089 -0.251 -0.832 0 0 0 
-18.419 -0.249 -0.849 0 0 0 
-17.77 -0.254 -0.815 0 0 0 
-15.375 -0.318 -0.813 0 0 0 
-15.265 -0.323 -0.805 0 0 0 
-17.32 -0.269 -0.787 0 0 0 
-17.57 -0.258 -0.803 0 0 0 
-17.43 -0.263 -0.795 0 0 0 
-17.19 -0.273 -0.779 0 0 0 
-14.966 -0.33 -0.783 0 0 0 
-14.866 -0.335 -0.775 0 0 0 
-14.763 -0.332 -0.627 0 0 0 
-15.242 -0.314 -0.661 0 0 0 
-15.412 -0.311 -0.672 0 0 0 
-15.672 -0.299 -0.691 0 0 0 
-16.571 -0.29 -0.741 0 0 0 
-16.181 -0.289 -0.721 0 0 0 
-16.761 -0.287 -0.752 0 0 0 
-17.0 -0.277 -0.768 0 0 0 
-16.92 -0.283 -0.762 0 0 0 
-15.962 -0.292 -0.709 0 0 0 
-15.812 -0.295 -0.7 0 0 0 
-15.602 -0.303 -0.685 0 0 0 
-15.532 -0.308 -0.68 0 0 0 
-17.866 -0.25 -0.656 0 0 0 
-17.696 -0.253 -0.648 0 0 0 
-17.586 -0.257 -0.641 0 0 0 
-15.173 -0.318 -0.656 0 0 0 
-15.023 -0.321 -0.646 0 0 0 
-14.903 -0.324 -0.638 0 0 0 
-14.889 -0.322 -0.488 0 0 0 
-15.358 -0.306 -0.52 0 0 0 
-15.638 -0.292 -0.54 0 0 0 
-15.688 -0.288 -0.545 0 0 0 
-17.007 -0.27 -0.611 0 0 0 
-17.417 -0.26 -0.633 0 0 0 
-17.277 -0.264 -0.625 0 0 0 
-17.097 -0.266 -0.617 0 0 0 
-16.927 -0.274 -0.606 0 0 0 
-16.797 -0.278 -0.599 0 0 0 
-16.747 -0.282 -0.594 0 0 0 
-16.417 -0.282 -0.58 0 0 0 
-15.898 -0.283 -0.557 0 0 0 
-15.768 -0.285 -0.55 0 0 0 
-16.138 -0.282 -0.568 0 0 0 
-15.548 -0.295 -0.535 0 0 0 
-15.478 -0.299 -0.53 0 0 0 
-15.438 -0.303 -0.526 0 0 0 
-15.318 -0.309 -0.516 0 0 0 
-15.258 -0.313 -0.512 0 0 0 
-15.188 -0.316 -0.506 0 0 0 
-15.133 -0.294 -0.357 0 0 0 
-15.493 -0.275 -0.386 0 0 0 
-15.403 -0.276 -0.381 0 0 0 
-16.552 -0.275 -0.424 0 0 0 
-16.822 -0.264 -0.441 0 0 0 
-16.732 -0.267 -0.436 0 0 0 
-16.882 -0.261 -0.445 0 0 0 
-17.322 -0.248 -0.468 0 0 0 
-17.202 -0.25 -0.462 0 0 0 
-17.102 -0.253 -0.457 0 0 0 
-17.062 -0.256 -0.454 0 0 0 
-16.952 -0.258 -0.449 0 0 0 
-16.692 -0.27 -0.433 0 0 0 
-16.622 -0.272 -0.429 0 0 0 
-15.953 -0.269 -0.407 0 0 0 
-15.803 -0.27 -0.401 0 0 0 
-15.683 -0.271 -0.395 0 0 0 
-15.583 -0.273 -0.39 0 0 0 
-15.353 -0.279 -0.377 0 0 0 
-15.263 -0.284 -0.37 0 0 0 
-15.333 -0.282 -0.374 0 0 0 
-15.223 -0.286 -0.367 0 0 0 
-16.386 -0.251 -0.255 0 0 0 
-16.426 -0.247 -0.26 0 0 0 
-16.406 -0.249 -0.257 0 0 0 
-15.203 -0.289 -0.364 0 0 0 
-15.143 -0.291 -0.36 0 0 0 
-15.108 -0.318 -0.501 0 0 0 
-14.968 -0.32 -0.494 0 0 0 
-15.083 -0.296 -0.353 0 0 0 
-15.033 -0.298 -0.349 0 0 0 
-15.023 -0.301 -0.346 0 0 0 
-14.963 -0.303 -0.342 0 0 0 
-14.923 -0.305 -0.339 0 0 0 
-14.843 -0.328 -0.633 0 0 0 
-14.729 -0.327 -0.477 0 0 0 
-14.819 -0.325 -0.483 0 0 0 
-14.813 -0.306 -0.334 0 0 0 
-14.763 -0.308 -0.33 0 0 0 
-14.663 -0.335 -0.62 0 0 0 
-14.639 -0.329 -0.471 0 0 0 
-14.636 -0.343 -0.757 0 0 0 
-14.507 -0.346 -0.747 0 0 0 
-14.573 -0.338 -0.613 0 0 0 
-14.463 -0.341 -0.605 0 0 0 
-14.593 -0.313 -0.318 0 0 0 
-14.543 -0.309 -0.32 0 0 0 
-14.633 -0.308 -0.324 0 0 0 
-14.509 -0.331 -0.464 0 0 0 
-14.429 -0.352 -0.878 0 0 0 
-14.309 -0.357 -0.867 0 0 0 
-14.407 -0.351 -0.739 0 0 0 
-14.304 -0.348 -0.592 0 0 0 
-14.353 -0.344 -0.598 0 0 0 
-14.399 -0.332 -0.458 0 0 0 
-14.309 -0.334 -0.452 0 0 0 
-14.229 -0.336 -0.447 0 0 0 
-14.217 -0.352 -0.726 0 0 0 
-14.171 -0.366 -0.987 0 0 0 
-11.153 -0.445 -1.138 0 0 0 
-11.969 -0.419 -1.13 0 0 0 
-10.984 -0.448 -1.117 0 0 0 
-9.682 -0.479 -1.135 0 0 0 
-7.204 -0.491 -1.136 0 0 0 
0.571 -0.563 -1.135 0 0 0 
0.094 -0.563 -1.135 0 0 0 
-1.185 -0.55 -1.134 0 0 0 
-1.125 -0.55 -1.134 0 0 0 
-2.077 -0.54 -1.139 0 0 0 
-2.856 -0.529 -1.14 0 0 0 
-1.753 -0.541 -1.14 0 0 0 
-1.923 -0.541 -1.139 0 0 0 
-2.197 -0.538 -1.134 0 0 0 
-5.707 -0.491 -1.138 0 0 0 
-2.715 -0.527 -1.136 0 0 0 
-3.482 -0.526 -1.134 0 0 0 
-2.114 -0.539 -1.136 0 0 0 
-1.951 -0.538 -1.134 0 0 0 
-1.073 -0.553 -1.14 0 0 0 
-0.493 -0.553 -1.14 0 0 0 
-0.467 -0.553 -1.14 0 0 0 
-0.405 -0.553 -1.14 0 0 0 
0.405 -0.553 -1.14 0 0 0 
0.467 -0.553 -1.14 0 0 0 
0.493 -0.553 -1.14 0 0 0 
-0.083 -0.553 -1.14 0 0 0 
-0.184 -0.553 -1.14 0 0 0 
-0.369 -0.553 -1.14 0 0 0 
-0.334 -0.553 -1.14 0 0 0 
-0.571 -0.553 -1.14 0 0 0 
-0.597 -0.553 -1.139 0 0 0 
0.597 -0.553 -1.139 0 0 0 
-0.784 -0.553 -1.14 0 0 0 
-0.752 -0.551 -1.137 0 0 0 
-0.709 -0.552 -1.138 0 0 0 
-0.116 -0.552 -1.138 0 0 0 
0.298 -0.552 -1.138 0 0 0 
0.116 -0.552 -1.138 0 0 0 
-0.298 -0.552 -1.138 0 0 0 
0.345 -0.552 -1.137 0 0 0 
0.38 -0.552 -1.137 0 0 0 
-0.38 -0.552 -1.137 0 0 0 
0.206 -0.551 -1.137 0 0 0 
-0.844 -0.552 -1.137 0 0 0 
-1.049 -0.55 -1.134 0 0 0 
-1.031 -0.551 -1.136 0 0 0 
-0.556 -0.551 -1.136 0 0 0 
-0.504 -0.551 -1.136 0 0 0 
-0.478 -0.551 -1.136 0 0 0 
-0.263 -0.551 -1.136 0 0 0 
0.309 -0.551 -1.136 0 0 0 
0.417 -0.551 -1.136 0 0 0 
0.504 -0.551 -1.136 0 0 0 
0.138 -0.551 -1.136 0 0 0 
-0.138 -0.551 -1.136 0 0 0 
-0.417 -0.551 -1.136 0 0 0 
-0.582 -0.551 -1.136 0 0 0 
-0.453 -0.551 -1.135 0 0 0 
0.217 -0.551 -1.135 0 0 0 
-0.65 -0.551 -1.136 0 0 0 
0.005 -0.55 -1.134 0 0 0 
0.356 -0.55 -1.134 0 0 0 
0.391 -0.55 -1.134 0 0 0 
0.32 -0.55 -1.134 0 0 0 
-0.608 -0.55 -1.134 0 0 0 
-0.878 -0.562 -1.134 0 0 0 
-0.635 -0.55 -1.133 0 0 0 
-0.049 -0.55 -1.133 0 0 0 
0.16 -0.55 -1.133 0 0 0 
0.228 -0.55 -1.133 0 0 0 
-0.16 -0.55 -1.133 0 0 0 
-0.428 -0.55 -1.133 0 0 0 
-1.515 -0.55 -1.133 0 0 0 
-4.021 -0.525 -1.133 0 0 0 
-3.13 -0.525 -1.133 0 0 0 
-2.979 -0.525 -1.133 0 0 0 
-2.772 -0.525 -1.133 0 0 0 
-2.151 -0.538 -1.133 0 0 0 
0.624 -0.562 -1.133 0 0 0 
0.639 -0.564 -1.136 0 0 0 
0.741 -0.564 -1.138 0 0 0 
0.895 -0.553 -1.139 0 0 0 
1.896 -0.553 -1.14 0 0 0 
1.932 -0.553 -1.14 0 0 0 
1.86 -0.553 -1.139 0 0 0 
1.444 -0.553 -1.139 0 0 0 
0.962 -0.552 -1.139 0 0 0 
1.575 -0.552 -1.138 0 0 0 
1.726 -0.552 -1.138 0 0 0 
1.549 -0.552 -1.138 0 0 0 
1.392 -0.552 -1.137 0 0 0 
1.788 -0.552 -1.137 0 0 0 
1.253 -0.552 -1.137 0 0 0 
5.55 -0.528 -1.139 0 0 0 
6.316 -0.528 -1.14 0 0 0 
7.679 -0.516 -1.139 0 0 0 
3.082 -0.54 -1.139 0 0 0 
5.775 -0.527 -1.138 0 0 0 
6.031 -0.528 -1.138 0 0 0 
6.602 -0.527 -1.137 0 0 0 
9.732 -0.491 -1.137 0 0 0 
1.21 -0.552 -1.137 0 0 0 
1.108 -0.551 -1.136 0 0 0 
1.297 -0.551 -1.136 0 0 0 
1.366 -0.551 -1.136 0 0 0 
1.691 -0.551 -1.136 0 0 0 
1.602 -0.551 -1.136 0 0 0 
3.32 -0.539 -1.136 0 0 0 
3.501 -0.539 -1.136 0 0 0 
3.702 -0.539 -1.136 0 0 0 
3.234 -0.539 -1.136 0 0 0 
0.724 -0.563 -1.136 0 0 0 
0.709 -0.562 -1.133 0 0 0 
1.629 -0.551 -1.135 0 0 0 
1.185 -0.55 -1.134 0 0 0 
1.228 -0.55 -1.134 0 0 0 
1.34 -0.55 -1.134 0 0 0 
2.205 -0.55 -1.134 0 0 0 
2.251 -0.55 -1.134 0 0 0 
1.96 -0.55 -1.134 0 0 0 
2.077 -0.55 -1.134 0 0 0 
3.597 -0.538 -1.135 0 0 0 
3.924 -0.538 -1.135 0 0 0 
3.406 -0.539 -1.135 0 0 0 
1.125 -0.55 -1.134 0 0 0 
1.656 -0.55 -1.133 0 0 0 
2.16 -0.55 -1.133 0 0 0 
1.996 -0.55 -1.133 0 0 0 
-4.563 -0.513 -1.133 0 0 0 
0.206 -0.561 -1.132 0 0 0 
0.752 -0.561 -1.132 0 0 0 
0.828 -0.561 -1.131 0 0 0 
0.65 -0.561 -1.131 0 0 0 
0.138 -0.561 -1.131 0 0 0 
0.811 -0.561 -1.13 0 0 0 
-0.217 -0.561 -1.13 0 0 0 
-0.763 -0.549 -1.131 0 0 0 
-1.143 -0.549 -1.132 0 0 0 
-1.161 -0.548 -1.13 0 0 0 
-2.903 -0.525 -1.132 0 0 0 
-2.381 -0.537 -1.132 0 0 0 
-2.279 -0.536 -1.13 0 0 0 
-3.895 -0.524 -1.131 0 0 0 
-3.206 -0.524 -1.131 0 0 0 
-3.292 -0.525 -1.131 0 0 0 
-3.377 -0.524 -1.13 0 0 0 
-3.045 -0.524 -1.13 0 0 0 
-2.234 -0.536 -1.13 0 0 0 
-1.101 -0.548 -1.13 0 0 0 
-0.438 -0.548 -1.13 0 0 0 
-1.289 -0.548 -1.13 0 0 0 
-3.665 -0.523 -1.129 0 0 0 
-5.933 -0.499 -1.129 0 0 0 
-2.326 -0.536 -1.129 0 0 0 
-0.274 -0.56 -1.129 0 0 0 
-0.005 -0.56 -1.129 0 0 0 
-0.171 -0.549 -1.132 0 0 0 
0.367 -0.549 -1.132 0 0 0 
0.06 -0.549 -1.132 0 0 0 
0.182 -0.549 -1.131 0 0 0 
-0.093 -0.549 -1.13 0 0 0 
0.239 -0.549 -1.131 0 0 0 
0.25 -0.548 -1.129 0 0 0 
0.331 -0.549 -1.131 0 0 0 
-0.356 -0.56 -1.129 0 0 0 
0.844 -0.562 -1.132 0 0 0 
1.108 -0.561 -1.131 0 0 0 
1.315 -0.549 -1.132 0 0 0 
2.032 -0.549 -1.131 0 0 0 
3.799 -0.537 -1.132 0 0 0 
4.156 -0.536 -1.13 0 0 0 
4.291 -0.536 -1.13 0 0 0 
4.03 -0.536 -1.131 0 0 0 
8.541 -0.501 -1.132 0 0 0 
6.888 -0.524 -1.13 0 0 0 
1.745 -0.548 -1.13 0 0 0 
1.049 -0.56 -1.13 0 0 0 
-6.504 -0.49 -1.134 0 0 0 
-6.208 -0.5 -1.129 0 0 0 
-1.455 -0.547 -1.128 0 0 0 
-1.481 -0.547 -1.128 0 0 0 
-3.77 -0.523 -1.128 0 0 0 
-3.559 -0.523 -1.128 0 0 0 
-0.228 -0.56 -1.128 0 0 0 
1.066 -0.56 -1.128 0 0 0 
-8.471 -0.487 -1.128 0 0 0 
11.253 -0.469 -1.14 0 0 0 
10.407 -0.479 -1.135 0 0 0 
-4.671 -0.478 -1.133 0 0 0 
-9.027 -0.487 -1.128 0 0 0 
-7.946 -0.485 -1.123 0 0 0 
-0.855 -0.558 -1.126 0 0 0 
-0.388 -0.546 -1.126 0 0 0 
-1.56 -0.546 -1.126 0 0 0 
-0.285 -0.559 -1.127 0 0 0 
1.084 -0.559 -1.127 0 0 0 
0.779 -0.559 -1.127 0 0 0 
0.763 -0.559 -1.126 0 0 0 
0.661 -0.559 -1.126 0 0 0 
0.261 -0.547 -1.127 0 0 0 
2.106 -0.547 -1.127 0 0 0 
2.381 -0.547 -1.127 0 0 0 
2.482 -0.546 -1.126 0 0 0 
4.418 -0.534 -1.126 0 0 0 
0.991 -0.558 -1.126 0 0 0 
-0.661 -0.559 -1.126 0 0 0 
-0.883 -0.555 -1.119 0 0 0 
-2.418 -0.534 -1.125 0 0 0 
-4.398 -0.522 -1.125 0 0 0 
-4.253 -0.521 -1.125 0 0 0 
-1.737 -0.546 -1.125 0 0 0 
-1.586 -0.546 -1.125 0 0 0 
-1.675 -0.546 -1.125 0 0 0 
-1.351 -0.545 -1.124 0 0 0 
-1.613 -0.545 -1.124 0 0 0 
-1.979 -0.545 -1.123 0 0 0 
-1.326 -0.544 -1.122 0 0 0 
-1.257 -0.544 -1.121 0 0 0 
-4.118 -0.521 -1.124 0 0 0 
-2.465 -0.532 -1.122 0 0 0 
-1.214 -0.544 -1.121 0 0 0 
-1.526 -0.544 -1.121 0 0 0 
-2.567 -0.531 -1.119 0 0 0 
-2.511 -0.531 -1.119 0 0 0 
-2.744 -0.53 -1.117 0 0 0 
-2.81 -0.53 -1.117 0 0 0 
-1.934 -0.543 -1.119 0 0 0 
-1.3 -0.543 -1.12 0 0 0 
-1.369 -0.543 -1.119 0 0 0 
-1.232 -0.543 -1.118 0 0 0 
-1.827 -0.543 -1.119 0 0 0 
-1.791 -0.542 -1.118 0 0 0 
-1.694 -0.542 -1.117 0 0 0 
-1.632 -0.542 -1.116 0 0 0 
-1.196 -0.546 -1.124 0 0 0 
-0.839 -0.558 -1.125 0 0 0 
-0.378 -0.558 -1.124 0 0 0 
0.104 -0.558 -1.125 0 0 0 
0.438 -0.558 -1.125 0 0 0 
0.378 -0.558 -1.124 0 0 0 
0.193 -0.558 -1.124 0 0 0 
0.115 -0.558 -1.124 0 0 0 
-0.104 -0.558 -1.125 0 0 0 
-0.822 -0.558 -1.124 0 0 0 
-0.746 -0.558 -1.124 0 0 0 
-0.646 -0.557 -1.123 0 0 0 
0.126 -0.557 -1.123 0 0 0 
0.526 -0.557 -1.124 0 0 0 
0.552 -0.557 -1.123 0 0 0 
1.455 -0.557 -1.123 0 0 0 
1.507 -0.557 -1.123 0 0 0 
0.688 -0.557 -1.123 0 0 0 
0.342 -0.557 -1.124 0 0 0 
-0.126 -0.557 -1.123 0 0 0 
-0.204 -0.557 -1.123 0 0 0 
2.279 -0.546 -1.125 0 0 0 
2.427 -0.546 -1.125 0 0 0 
7.214 -0.521 -1.125 0 0 0 
0.272 -0.546 -1.125 0 0 0 
0.282 -0.545 -1.123 0 0 0 
2.326 -0.545 -1.124 0 0 0 
4.563 -0.533 -1.124 0 0 0 
4.719 -0.533 -1.123 0 0 0 
-0.806 -0.557 -1.123 0 0 0 
0.148 -0.556 -1.121 0 0 0 
0.353 -0.556 -1.121 0 0 0 
0.604 -0.556 -1.122 0 0 0 
0.79 -0.556 -1.121 0 0 0 
1.136 -0.556 -1.121 0 0 0 
0.449 -0.556 -1.121 0 0 0 
0.388 -0.556 -1.121 0 0 0 
0.215 -0.556 -1.121 0 0 0 
-0.79 -0.556 -1.121 0 0 0 
-0.63 -0.556 -1.12 0 0 0 
0.159 -0.556 -1.12 0 0 0 
0.933 -0.556 -1.12 0 0 0 
0.917 -0.556 -1.12 0 0 0 
0.005 -0.556 -1.12 0 0 0 
-0.159 -0.556 -1.12 0 0 0 
-0.774 -0.556 -1.12 0 0 0 
-0.511 -0.555 -1.119 0 0 0 
0.226 -0.555 -1.12 0 0 0 
0.95 -0.555 -1.12 0 0 0 
0.016 -0.555 -1.12 0 0 0 
-0.049 -0.555 -1.119 0 0 0 
-0.027 -0.555 -1.119 0 0 0 
0.027 -0.555 -1.119 0 0 0 
0.038 -0.555 -1.119 0 0 0 
0.049 -0.555 -1.119 0 0 0 
0.883 -0.555 -1.119 0 0 0 
0.967 -0.555 -1.119 0 0 0 
0.486 -0.555 -1.119 0 0 0 
0.511 -0.555 -1.119 0 0 0 
-0.486 -0.555 -1.119 0 0 0 
-0.537 -0.555 -1.119 0 0 0 
-0.364 -0.555 -1.118 0 0 0 
0.06 -0.555 -1.118 0 0 0 
0.237 -0.555 -1.118 0 0 0 
0.46 -0.555 -1.118 0 0 0 
1.154 -0.555 -1.118 0 0 0 
1.001 -0.555 -1.118 0 0 0 
0.589 -0.555 -1.118 0 0 0 
0.364 -0.555 -1.118 0 0 0 
0.282 -0.555 -1.118 0 0 0 
0.071 -0.555 -1.118 0 0 0 
-0.06 -0.555 -1.118 0 0 0 
-0.17 -0.555 -1.118 0 0 0 
-0.328 -0.554 -1.118 0 0 0 
-0.248 -0.554 -1.116 0 0 0 
-0.192 -0.553 -1.116 0 0 0 
-0.181 -0.554 -1.117 0 0 0 
0.181 -0.554 -1.117 0 0 0 
1.019 -0.554 -1.117 0 0 0 
-0.093 -0.554 -1.117 0 0 0 
0.248 -0.554 -1.116 0 0 0 
0.293 -0.554 -1.116 0 0 0 
0.082 -0.554 -1.117 0 0 0 
1.179 -0.557 -1.122 0 0 0 
1.533 -0.557 -1.122 0 0 0 
1.56 -0.556 -1.121 0 0 0 
3.045 -0.544 -1.121 0 0 0 
2.969 -0.544 -1.12 0 0 0 
2.529 -0.544 -1.122 0 0 0 
4.885 -0.532 -1.121 0 0 0 
2.763 -0.543 -1.12 0 0 0 
1.377 -0.556 -1.12 0 0 0 
1.214 -0.554 -1.117 0 0 0 
1.282 -0.555 -1.119 0 0 0 
1.764 -0.554 -1.117 0 0 0 
1.473 -0.554 -1.117 0 0 0 
1.421 -0.554 -1.116 0 0 0 
1.326 -0.554 -1.117 0 0 0 
3.282 -0.543 -1.119 0 0 0 
5.061 -0.531 -1.119 0 0 0 
5.953 -0.531 -1.119 0 0 0 
6.228 -0.531 -1.119 0 0 0 
2.894 -0.543 -1.119 0 0 0 
2.576 -0.542 -1.118 0 0 0 
2.632 -0.542 -1.117 0 0 0 
2.819 -0.542 -1.116 0 0 0 
3.112 -0.542 -1.117 0 0 0 
5.697 -0.53 -1.118 0 0 0 
5.256 -0.53 -1.118 0 0 0 
6.504 -0.529 -1.116 0 0 0 
-4.535 -0.52 -1.122 0 0 0 
-4.642 -0.485 -1.122 0 0 0 
-5.188 -0.475 -1.126 0 0 0 
8.006 -0.508 -1.122 0 0 0 
9.057 -0.499 -1.127 0 0 0 
9.622 -0.495 -1.119 0 0 0 
7.57 -0.519 -1.119 0 0 0 
10.278 -0.482 -1.117 0 0 0 
11.074 -0.471 -1.118 0 0 0 
-10.318 -0.465 -1.129 0 0 0 
13.214 -0.452 -1.127 0 0 0 
-4.973 -0.463 -1.125 0 0 0 
-4.778 -0.462 -1.122 0 0 0 
12.059 -0.462 -1.123 0 0 0 
-14.151 -0.37 -1.116 0 0 0 
-13.94 -0.362 -0.839 0 0 0 
-14.037 -0.361 -0.711 0 0 0 
-13.932 -0.368 -0.968 0 0 0 
-12.836 -0.391 -1.113 0 0 0 
-11.77 -0.422 -1.108 0 0 0 
-10.189 -0.469 -1.111 0 0 0 
-7.442 -0.481 -1.113 0 0 0 
0.446 -0.562 -1.108 0 0 0 
-0.574 -0.553 -1.115 0 0 0 
-0.548 -0.553 -1.115 0 0 0 
